# .PCD v0.7 - Point Cloud Data file format
VERSION 0.7
FIELDS x y z rgb
SIZE 4 4 4 4
TYPE F F F F
COUNT 1 1 1 1
WIDTH 1003
HEIGHT 1
VIEWPOINT 0 0 0 1 0 0 0
POINTS 1003
DATA ascii
0.44620189 -0.39557928 0.71398795 2.2969551e-38
0.43814287 -0.38241416 0.71559852 2.2969551e-38
0.44158465 -0.38806668 0.71521282 2.2969551e-38
0.4336957 -0.3746466 0.71511155 2.2969551e-38
0.42789143 -0.36410049 0.71535796 2.2969551e-38
0.43020791 -0.36879599 0.71816438 2.2969551e-38
0.42318466 -0.35506487 0.71463364 2.2969551e-38
0.41777778 -0.34468997 0.71529549 2.2969551e-38
0.42042845 -0.34978393 0.71513247 2.2969551e-38
0.41279718 -0.33502203 0.71538931 2.2969551e-38
0.40756044 -0.32474321 0.71506596 2.2969551e-38
0.40274772 -0.31446016 0.71563184 2.2969551e-38
0.39852962 -0.3036623 0.71498126 2.2969551e-38
0.40046763 -0.30843616 0.71657771 2.2969551e-38
0.39629707 -0.29459226 0.71505773 2.2969551e-38
0.40003988 -0.29036427 0.71006799 2.2969551e-38
0.3987287 -0.2893573 0.7183072 2.2969551e-38
0.40507597 -0.28554717 0.71462405 2.2969551e-38
0.4112854 -0.28090665 0.71360624 2.2969551e-38
0.41615924 -0.27755961 0.71489358 2.2969551e-38
0.42487001 -0.27265352 0.71456987 2.2969551e-38
0.43458837 -0.26732755 0.71547097 2.2969551e-38
0.44845951 -0.40060022 0.72811961 2.2969551e-38
0.45047623 -0.40326041 0.721407 2.2969551e-38
0.44504005 -0.39476332 0.72449762 2.2969551e-38
0.43806574 -0.38357303 0.72563505 2.2969551e-38
0.44056833 -0.38784939 0.72790623 2.2969551e-38
0.43316552 -0.37489805 0.72506291 2.2969551e-38
0.42775109 -0.36464801 0.72550368 2.2969551e-38
0.43058378 -0.36964148 0.72005945 2.2969551e-38
0.42258486 -0.35466886 0.72450149 2.2969551e-38
0.41763142 -0.34506172 0.72519708 2.2969551e-38
0.41258857 -0.33520398 0.72527236 2.2969551e-38
0.40736079 -0.32494667 0.72500134 2.2969551e-38
0.40333271 -0.31507882 0.72473192 2.2969551e-38
0.39915988 -0.30270869 0.72474879 2.2969551e-38
0.40084693 -0.30766189 0.72415704 2.2969551e-38
0.39652777 -0.29439822 0.72419715 2.2969551e-38
0.39787838 -0.28872219 0.72565007 2.2969551e-38
0.4050464 -0.28432706 0.7246179 2.2969551e-38
0.41101584 -0.28076756 0.72465581 2.2969551e-38
0.41607633 -0.27777782 0.72449636 2.2969551e-38
0.42507043 -0.27264154 0.72487539 2.2969551e-38
0.42999855 -0.26980478 0.72346824 2.2969551e-38
0.43441042 -0.26740852 0.72558409 2.2969551e-38
0.44879121 -0.401622 0.73487252 2.2969551e-38
0.45104471 -0.4054327 0.73634076 2.2969551e-38
0.44443578 -0.394499 0.73515564 2.2969551e-38
0.43778938 -0.38359776 0.73458403 2.2969551e-38
0.44091928 -0.38876352 0.73504734 2.2969551e-38
0.43301323 -0.3753877 0.73531121 2.2969551e-38
0.42669463 -0.36469159 0.73574853 2.2969551e-38
0.43019176 -0.36985683 0.73053807 2.2969551e-38
0.42226204 -0.35501474 0.73483527 2.2969551e-38
0.41730082 -0.34506062 0.73539531 2.2969551e-38
0.40999302 -0.33050591 0.73348832 2.2969551e-38
0.41273403 -0.33595657 0.73521793 2.2969551e-38
0.40723395 -0.32513407 0.7352699 2.2969551e-38
0.39970127 -0.31091076 0.73825073 2.2969551e-38
0.40296993 -0.31628749 0.73458201 2.2969551e-38
0.39803737 -0.30488771 0.73564351 2.2969551e-38
0.40109628 -0.30971718 0.73099393 2.2969551e-38
0.39626169 -0.29263374 0.73558021 2.2969551e-38
0.39883178 -0.2890617 0.733316 2.2969551e-38
0.40439036 -0.28512937 0.7350921 2.2969551e-38
0.41137764 -0.28073648 0.73489273 2.2969551e-38
0.41648307 -0.27781475 0.73489141 2.2969551e-38
0.42481589 -0.27324557 0.73499817 2.2969551e-38
0.43146202 -0.27083203 0.73791885 2.2969551e-38
0.43584347 -0.26818916 0.7347886 2.2969551e-38
0.44156045 -0.26647753 0.73657101 2.2969551e-38
0.45611396 -0.41451034 0.74587047 2.2969551e-38
0.44881961 -0.40245166 0.7443679 2.2969551e-38
0.45167431 -0.40718436 0.7449255 2.2969551e-38
0.44432268 -0.39507282 0.74547672 2.2969551e-38
0.43768132 -0.38372725 0.74443173 2.2969551e-38
0.44044992 -0.38874644 0.74728626 2.2969551e-38
0.42994398 -0.370197 0.74060184 2.2969551e-38
0.43282387 -0.37492248 0.74522579 2.2969551e-38
0.42699617 -0.36448595 0.74526459 2.2969551e-38
0.41995686 -0.35042948 0.74416077 2.2969551e-38
0.42237279 -0.35535157 0.74455827 2.2969551e-38
0.41751939 -0.34540853 0.74520183 2.2969551e-38
0.40994483 -0.33080754 0.74447858 2.2969551e-38
0.41238064 -0.33544663 0.7450375 2.2969551e-38
0.40693712 -0.32502794 0.74525863 2.2969551e-38
0.39940253 -0.31095091 0.74602443 2.2969551e-38
0.40210357 -0.3158541 0.74454314 2.2969551e-38
0.39638159 -0.30517274 0.74604201 2.2969551e-38
0.39624414 -0.29474595 0.7445851 2.2969551e-38
0.40084791 -0.29063651 0.74605036 2.2969551e-38
0.40546077 -0.28578931 0.74491942 2.2969551e-38
0.41126618 -0.28082201 0.74639678 2.2969551e-38
0.416186 -0.27792376 0.74532074 2.2969551e-38
0.425026 -0.27389723 0.74497348 2.2969551e-38
0.43261468 -0.2709884 0.74507201 2.2969551e-38
0.43765125 -0.26914024 0.74527586 2.2969551e-38
0.44253269 -0.26736259 0.74442238 2.2969551e-38
0.45614156 -0.41488951 0.75475985 2.2969551e-38
0.4484354 -0.40241233 0.75545496 2.2969551e-38
0.45174709 -0.40775272 0.75500351 2.2969551e-38
0.44372663 -0.39476812 0.7551176 2.2969551e-38
0.43742487 -0.38416129 0.75506991 2.2969551e-38
0.44032431 -0.38934577 0.75798053 2.2969551e-38
0.432731 -0.37493008 0.75481075 2.2969551e-38
0.42762023 -0.36497402 0.75514531 2.2969551e-38
0.43262291 -0.3638607 0.75791889 2.2969551e-38
0.42252618 -0.35508734 0.75437778 2.2969551e-38
0.41751331 -0.34530306 0.75476724 2.2969551e-38
0.40967268 -0.33064836 0.75444555 2.2969551e-38
0.4126167 -0.33614472 0.75484097 2.2969551e-38
0.40674344 -0.3250944 0.75500727 2.2969551e-38
0.39935964 -0.31109154 0.75563252 2.2969551e-38
0.40189403 -0.31585753 0.75480747 2.2969551e-38
0.39676839 -0.30459335 0.75552255 2.2969551e-38
0.39529574 -0.29526576 0.75498152 2.2969551e-38
0.40106076 -0.29067361 0.75050014 2.2969551e-38
0.39853719 -0.28939512 0.75776583 2.2969551e-38
0.40539956 -0.28591475 0.75436014 2.2969551e-38
0.4115485 -0.28117433 0.75428557 2.2969551e-38
0.41632229 -0.27803132 0.75472635 2.2969551e-38
0.42492417 -0.27427587 0.75477058 2.2969551e-38
0.43274969 -0.27114782 0.75501859 2.2969551e-38
0.43768796 -0.26916072 0.75535709 2.2969551e-38
0.44198146 -0.2675254 0.75430012 2.2969551e-38
0.45494863 -0.41327128 0.76570463 2.2969551e-38
0.44825172 -0.40252605 0.76528716 2.2969551e-38
0.45160007 -0.40787846 0.76517731 2.2969551e-38
0.44349945 -0.39483878 0.76504588 2.2969551e-38
0.43726218 -0.38449621 0.76527339 2.2969551e-38
0.44048232 -0.38998038 0.76692343 2.2969551e-38
0.4299027 -0.37051022 0.76869094 2.2969551e-38
0.43240005 -0.37542236 0.7650066 2.2969551e-38
0.42741477 -0.36509374 0.76506627 2.2969551e-38
0.41978556 -0.35025221 0.76322579 2.2969551e-38
0.42242309 -0.35542259 0.76514322 2.2969551e-38
0.41703206 -0.34512788 0.76496482 2.2969551e-38
0.40941742 -0.33075365 0.76533628 2.2969551e-38
0.41208127 -0.33579034 0.76493609 2.2969551e-38
0.40620309 -0.32452494 0.76488525 2.2969551e-38
0.39952698 -0.31090149 0.76474237 2.2969551e-38
0.40209988 -0.31569695 0.76494545 2.2969551e-38
0.39780104 -0.30497488 0.76501417 2.2969551e-38
0.39529818 -0.29432565 0.76456857 2.2969551e-38
0.39760131 -0.28867075 0.76561624 2.2969551e-38
0.40513924 -0.28412193 0.76487535 2.2969551e-38
0.41121519 -0.28060332 0.76485521 2.2969551e-38
0.41589099 -0.27808863 0.76485437 2.2969551e-38
0.42483571 -0.27403718 0.76522464 2.2969551e-38
0.43212834 -0.27097258 0.76449102 2.2969551e-38
0.4372676 -0.26880008 0.76558065 2.2969551e-38
0.44169325 -0.26706833 0.76494443 2.2969551e-38
0.45552319 -0.41479033 0.77483082 2.2969551e-38
0.4481712 -0.40299743 0.7753256 2.2969551e-38
0.45133623 -0.40803877 0.77456015 2.2969551e-38
0.44339636 -0.39487761 0.77539045 2.2969551e-38
0.43740532 -0.38438994 0.77472878 2.2969551e-38
0.44028026 -0.38937649 0.77510083 2.2969551e-38
0.42983952 -0.37053567 0.77556455 2.2969551e-38
0.43222794 -0.37546137 0.77502805 2.2969551e-38
0.42703444 -0.36501378 0.77516627 2.2969551e-38
0.41953585 -0.35054803 0.77424842 2.2969551e-38
0.42206958 -0.35544503 0.77487749 2.2969551e-38
0.41667944 -0.34515044 0.77520442 2.2969551e-38
0.40957284 -0.33288893 0.77552122 2.2969551e-38
0.4119491 -0.3360149 0.77515996 2.2969551e-38
0.40643036 -0.32526219 0.77456307 2.2969551e-38
0.39955056 -0.31122932 0.7750572 2.2969551e-38
0.40185329 -0.31628174 0.77486002 2.2969551e-38
0.39761004 -0.30504525 0.77434111 2.2969551e-38
0.39501622 -0.29366472 0.77485698 2.2969551e-38
0.39831293 -0.28893524 0.77485609 2.2969551e-38
0.40468535 -0.28471619 0.77496302 2.2969551e-38
0.41093701 -0.28073534 0.77567238 2.2969551e-38
0.41598248 -0.27806762 0.77517116 2.2969551e-38
0.42492494 -0.27406672 0.77529722 2.2969551e-38
0.43201047 -0.27092284 0.77504414 2.2969551e-38
0.43699959 -0.26875517 0.77535498 2.2969551e-38
0.4415383 -0.26680583 0.77536988 2.2969551e-38
0.45542344 -0.41544083 0.78440988 2.2969551e-38
0.44801563 -0.40339655 0.78502744 2.2969551e-38
0.45092279 -0.4083401 0.78683621 2.2969551e-38
0.44333535 -0.39521229 0.78488696 2.2969551e-38
0.4373239 -0.38444093 0.78467309 2.2969551e-38
0.44012517 -0.38971245 0.78750306 2.2969551e-38
0.42952132 -0.37036011 0.78601742 2.2969551e-38
0.43264669 -0.37566417 0.78489584 2.2969551e-38
0.42684874 -0.36517516 0.78518677 2.2969551e-38
0.41969827 -0.35137239 0.78519505 2.2969551e-38
0.4221051 -0.35600549 0.78509271 2.2969551e-38
0.41639063 -0.3449384 0.78499132 2.2969551e-38
0.40928665 -0.3311584 0.78591478 2.2969551e-38
0.41180435 -0.3360256 0.78520775 2.2969551e-38
0.40607196 -0.32486057 0.78446883 2.2969551e-38
0.39932796 -0.3118352 0.78442913 2.2969551e-38
0.40172127 -0.31648183 0.78557205 2.2969551e-38
0.39601171 -0.30498531 0.78521824 2.2969551e-38
0.39504218 -0.29318023 0.7853744 2.2969551e-38
0.39891383 -0.28910801 0.78469902 2.2969551e-38
0.40488628 -0.2847324 0.78533792 2.2969551e-38
0.41144049 -0.28058451 0.78610903 2.2969551e-38
0.41615701 -0.27852935 0.7846632 2.2969551e-38
0.42486334 -0.27506569 0.78498524 2.2969551e-38
0.43352702 -0.27153757 0.78501463 2.2969551e-38
0.43860927 -0.26938999 0.78468132 2.2969551e-38
0.44195411 -0.26798099 0.78469032 2.2969551e-38
0.45401955 -0.41423893 0.7943691 2.2969551e-38
0.44772151 -0.40349129 0.79462588 2.2969551e-38
0.45058993 -0.40862679 0.79701966 2.2969551e-38
0.44268981 -0.39479998 0.79496861 2.2969551e-38
0.43706843 -0.38505125 0.7951622 2.2969551e-38
0.42954478 -0.37108111 0.79651517 2.2969551e-38
0.43204722 -0.37580684 0.79490888 2.2969551e-38
0.42633009 -0.36472172 0.79475737 2.2969551e-38
0.41950312 -0.35153937 0.7949838 2.2969551e-38
0.42199692 -0.35635424 0.79518205 2.2969551e-38
0.41609395 -0.34502113 0.79498392 2.2969551e-38
0.40858757 -0.331411 0.7962482 2.2969551e-38
0.41198727 -0.33593801 0.79468614 2.2969551e-38
0.40583959 -0.3251425 0.79512829 2.2969551e-38
0.39908049 -0.31187478 0.79445428 2.2969551e-38
0.4018243 -0.31727105 0.79537684 2.2969551e-38
0.3956818 -0.30538648 0.79507196 2.2969551e-38
0.39530689 -0.29420379 0.79519111 2.2969551e-38
0.39992574 -0.28960383 0.7942102 2.2969551e-38
0.40467471 -0.28543299 0.79510087 2.2969551e-38
0.41171768 -0.28074646 0.79506969 2.2969551e-38
0.41672668 -0.27869171 0.79498893 2.2969551e-38
0.42492113 -0.27521458 0.79476851 2.2969551e-38
0.43313003 -0.27169332 0.79333949 2.2969551e-38
0.44456035 -0.2711131 0.79398984 2.2969551e-38
0.43734828 -0.26850384 0.79589522 2.2969551e-38
0.44178718 -0.26873034 0.79302967 2.2969551e-38
0.45371124 -0.41430888 0.80509949 2.2969551e-38
0.44761074 -0.40380332 0.80506414 2.2969551e-38
0.45036167 -0.40858424 0.8047663 2.2969551e-38
0.43982732 -0.39034325 0.80511951 2.2969551e-38
0.44271871 -0.39533123 0.80514014 2.2969551e-38
0.43684116 -0.38513896 0.80493814 2.2969551e-38
0.42943668 -0.37147269 0.8055824 2.2969551e-38
0.43217361 -0.37673861 0.80530488 2.2969551e-38
0.42613825 -0.36502528 0.80487168 2.2969551e-38
0.41906595 -0.3515802 0.80512506 2.2969551e-38
0.42178488 -0.35665694 0.80514336 2.2969551e-38
0.4154315 -0.3447336 0.80515128 2.2969551e-38
0.4090448 -0.33245662 0.80493993 2.2969551e-38
0.41139954 -0.33706528 0.80478013 2.2969551e-38
0.40523207 -0.32520413 0.80489063 2.2969551e-38
0.39866918 -0.3121137 0.80376178 2.2969551e-38
0.40123174 -0.31727403 0.80524647 2.2969551e-38
0.39434183 -0.30426642 0.80582094 2.2969551e-38
0.39609578 -0.29523423 0.80441445 2.2969551e-38
0.40074617 -0.29060134 0.80648237 2.2969551e-38
0.40523618 -0.28557447 0.80456454 2.2969551e-38
0.41121921 -0.28065777 0.80518442 2.2969551e-38
0.41636118 -0.27783564 0.80546975 2.2969551e-38
0.42437789 -0.27283183 0.80585665 2.2969551e-38
0.42926264 -0.26971325 0.8060385 2.2969551e-38
0.4337537 -0.26831785 0.80622911 2.2969551e-38
0.45470029 -0.41563457 0.8158744 2.2969551e-38
0.44782466 -0.40455389 0.81524587 2.2969551e-38
0.45064789 -0.40925673 0.81276834 2.2969551e-38
0.43963528 -0.39033094 0.81652045 2.2969551e-38
0.44273892 -0.39572304 0.81498277 2.2969551e-38
0.43627438 -0.38450089 0.81475675 2.2969551e-38
0.42921749 -0.37144592 0.81502908 2.2969551e-38
0.43163291 -0.37618425 0.81551057 2.2969551e-38
0.42595881 -0.36499703 0.81459033 2.2969551e-38
0.41913244 -0.35185531 0.81496638 2.2969551e-38
0.42181203 -0.35687315 0.81510979 2.2969551e-38
0.4154917 -0.34512681 0.81491208 2.2969551e-38
0.40860733 -0.33229494 0.8147341 2.2969551e-38
0.41139695 -0.33751661 0.81571025 2.2969551e-38
0.40472212 -0.32486495 0.81531066 2.2969551e-38
0.39868343 -0.31250566 0.81517613 2.2969551e-38
0.40101817 -0.31733868 0.8162607 2.2969551e-38
0.39551923 -0.30466327 0.81531155 2.2969551e-38
0.39433786 -0.29512498 0.8151412 2.2969551e-38
0.39822102 -0.28856707 0.81764156 2.2969551e-38
0.40501517 -0.28448701 0.81520498 2.2969551e-38
0.41125044 -0.28071073 0.81518817 2.2969551e-38
0.41618249 -0.27782381 0.81507456 2.2969551e-38
0.42489374 -0.27337742 0.81489921 2.2969551e-38
0.43220872 -0.27086574 0.81437755 2.2969551e-38
0.43648326 -0.26876613 0.81436133 2.2969551e-38
0.44051316 -0.26761061 0.81259322 2.2969551e-38
0.45490992 -0.41366208 0.82227504 2.2969551e-38
0.44741562 -0.4032315 0.82594639 2.2969551e-38
0.45118552 -0.40883827 0.8250041 2.2969551e-38
0.43974721 -0.39074641 0.82594782 2.2969551e-38
0.44290039 -0.39514846 0.82631022 2.2969551e-38
0.43694177 -0.38482824 0.8260228 2.2969551e-38
0.44033265 -0.389036 0.82923412 2.2969551e-38
0.4292357 -0.37140909 0.82559437 2.2969551e-38
0.43222111 -0.3764798 0.8262217 2.2969551e-38
0.42600852 -0.36489272 0.82487559 2.2969551e-38
0.41952974 -0.35154971 0.82445747 2.2969551e-38
0.42189717 -0.35630235 0.82500106 2.2969551e-38
0.4161801 -0.34529379 0.82513893 2.2969551e-38
0.40878868 -0.33201221 0.82411838 2.2969551e-38
0.41176522 -0.33717263 0.82565951 2.2969551e-38
0.40508339 -0.32436112 0.82531375 2.2969551e-38
0.39963794 -0.31136841 0.82164538 2.2969551e-38
0.40176377 -0.31536973 0.82520562 2.2969551e-38
0.39785799 -0.30503094 0.82492906 2.2969551e-38
0.39513257 -0.29403034 0.82545149 2.2969551e-38
0.39808455 -0.28876612 0.82501227 2.2969551e-38
0.40518609 -0.28455001 0.82488412 2.2969551e-38
0.41161001 -0.28081134 0.82519186 2.2969551e-38
0.41653436 -0.27784678 0.82507992 2.2969551e-38
0.42441469 -0.27306974 0.8256008 2.2969551e-38
0.43077523 -0.27024013 0.82149172 2.2969551e-38
0.4295429 -0.26983801 0.82722133 2.2969551e-38
0.43351868 -0.26805732 0.82575905 2.2969551e-38
0.45731199 -0.41358843 0.83470976 2.2969551e-38
0.46306872 -0.41734654 0.83849961 2.2969551e-38
0.44896242 -0.40163636 0.83226377 2.2969551e-38
0.45285505 -0.40558651 0.83541828 2.2969551e-38
0.44626784 -0.39480352 0.83479476 2.2969551e-38
0.45049158 -0.39917144 0.83830422 2.2969551e-38
0.43848965 -0.38255838 0.83308774 2.2969551e-38
0.44201663 -0.38634613 0.83600819 2.2969551e-38
0.42977464 -0.37036094 0.831967 2.2969551e-38
0.43493593 -0.37511742 0.83559042 2.2969551e-38
0.42765346 -0.36406144 0.834737 2.2969551e-38
0.43190232 -0.36547646 0.83852446 2.2969551e-38
0.4947443 -0.36889738 0.83911014 2.2969551e-38
0.41968277 -0.35069469 0.83237565 2.2969551e-38
0.4251281 -0.35466474 0.83634984 2.2969551e-38
0.43099597 -0.35642037 0.83934802 2.2969551e-38
0.41775176 -0.3443532 0.83474171 2.2969551e-38
0.42425704 -0.34528607 0.83816391 2.2969551e-38
0.47914326 -0.34106392 0.83831698 2.2969551e-38
0.48267201 -0.3453806 0.8371684 2.2969551e-38
0.40924615 -0.33166033 0.8329649 2.2969551e-38
0.41511089 -0.33489051 0.83591127 2.2969551e-38
0.42278039 -0.33544484 0.83876121 2.2969551e-38
0.47654459 -0.33559334 0.83643174 2.2969551e-38
0.40697274 -0.32446232 0.83441269 2.2969551e-38
0.41506368 -0.32514223 0.83757961 2.2969551e-38
0.42160493 -0.32556435 0.83946699 2.2969551e-38
0.46630049 -0.32203791 0.83895618 2.2969551e-38
0.47157428 -0.32672143 0.83638102 2.2969551e-38
0.40493944 -0.31479204 0.8361662 2.2969551e-38
0.41419637 -0.31608698 0.83902812 2.2969551e-38
0.42011267 -0.3196345 0.83979893 2.2969551e-38
0.44031176 -0.31496835 0.83811623 2.2969551e-38
0.45925727 -0.31368601 0.83936226 2.2969551e-38
0.46317026 -0.31569529 0.83768588 2.2969551e-38
0.39886141 -0.30312377 0.83479029 2.2969551e-38
0.40340853 -0.30557495 0.83856833 2.2969551e-38
0.41191998 -0.30033639 0.83991182 2.2969551e-38
0.45741513 -0.30619866 0.83850944 2.2969551e-38
0.46182308 -0.30891162 0.83507037 2.2969551e-38
0.39823723 -0.29591778 0.83355922 2.2969551e-38
0.40444469 -0.2946429 0.83781129 2.2969551e-38
0.41414732 -0.29471016 0.83920276 2.2969551e-38
0.44837171 -0.29093477 0.83995843 2.2969551e-38
0.45462829 -0.29861882 0.836142 2.2969551e-38
0.39939913 -0.28951904 0.83088988 2.2969551e-38
0.40536237 -0.28620854 0.83452857 2.2969551e-38
0.41445351 -0.28436598 0.83769405 2.2969551e-38
0.42061841 -0.28312397 0.83978677 2.2969551e-38
0.43983319 -0.28008276 0.83985364 2.2969551e-38
0.44451365 -0.28398034 0.8392033 2.2969551e-38
0.41701984 -0.27844727 0.83379984 2.2969551e-38
0.42516971 -0.27556315 0.83546829 2.2969551e-38
0.43461108 -0.27400228 0.83687329 2.2969551e-38
0.4416658 -0.27613354 0.83765709 2.2969551e-38
0.43537191 -0.2689546 0.83185297 2.2969551e-38
0.46617132 -0.4133513 0.84135532 2.2969551e-38
0.47373098 -0.41365328 0.84299457 2.2969551e-38
0.45678648 -0.40409946 0.8416155 2.2969551e-38
0.46481848 -0.40493831 0.84271336 2.2969551e-38
0.47505042 -0.40503722 0.84419245 2.2969551e-38
0.4836646 -0.40369108 0.84567958 2.2969551e-38
0.49025023 -0.40077257 0.84611952 2.2969551e-38
0.4484129 -0.39255226 0.8413285 2.2969551e-38
0.45517817 -0.39516723 0.84254599 2.2969551e-38
0.46512082 -0.39471331 0.84359825 2.2969551e-38
0.47473213 -0.39514205 0.84493566 2.2969551e-38
0.48443258 -0.39494178 0.84611934 2.2969551e-38
0.49400231 -0.3940545 0.84496629 2.2969551e-38
0.50161219 -0.3917349 0.84632301 2.2969551e-38
0.44615638 -0.38432246 0.84239811 2.2969551e-38
0.45487595 -0.3850719 0.84350812 2.2969551e-38
0.46492386 -0.38504902 0.84446806 2.2969551e-38
0.47507313 -0.38508576 0.84576535 2.2969551e-38
0.48512393 -0.38465711 0.84569567 2.2969551e-38
0.49530461 -0.38519526 0.84415084 2.2969551e-38
0.50180125 -0.3866016 0.8429836 2.2969551e-38
0.43811408 -0.37360051 0.84147882 2.2969551e-38
0.44479957 -0.37509796 0.8433339 2.2969551e-38
0.45512861 -0.37494829 0.8443982 2.2969551e-38
0.46510866 -0.3748779 0.84533334 2.2969551e-38
0.47456983 -0.37509951 0.84589231 2.2969551e-38
0.48480317 -0.37514529 0.84510428 2.2969551e-38
0.4932951 -0.37548974 0.84392184 2.2969551e-38
0.43661618 -0.36476502 0.84170187 2.2969551e-38
0.44461846 -0.36505038 0.84366649 2.2969551e-38
0.45452583 -0.36484337 0.84502465 2.2969551e-38
0.46478578 -0.36503521 0.84574658 2.2969551e-38
0.47485489 -0.36491269 0.8453812 2.2969551e-38
0.48466411 -0.36510757 0.84447557 2.2969551e-38
0.4909122 -0.36819124 0.84391844 2.2969551e-38
0.43540511 -0.3548016 0.84195191 2.2969551e-38
0.44441271 -0.35503682 0.8438164 2.2969551e-38
0.4547081 -0.35487312 0.84501308 2.2969551e-38
0.46487442 -0.35495636 0.84530449 2.2969551e-38
0.47511828 -0.3550956 0.8447476 2.2969551e-38
0.48285323 -0.35576499 0.84387636 2.2969551e-38
0.42885217 -0.34285611 0.84052008 2.2969551e-38
0.4345527 -0.34505284 0.84226704 2.2969551e-38
0.44448274 -0.34498441 0.84393984 2.2969551e-38
0.45484355 -0.34497014 0.84474611 2.2969551e-38
0.46544793 -0.34508565 0.84466219 2.2969551e-38
0.4744643 -0.34540796 0.84403658 2.2969551e-38
0.48101044 -0.34812006 0.84223354 2.2969551e-38
0.42757443 -0.33461496 0.84097314 2.2969551e-38
0.43455109 -0.33481726 0.84271413 2.2969551e-38
0.44440314 -0.33495602 0.84386814 2.2969551e-38
0.45436645 -0.33530232 0.84439093 2.2969551e-38
0.46451613 -0.33505702 0.84407079 2.2969551e-38
0.47188911 -0.33679679 0.84305644 2.2969551e-38
0.42608535 -0.32468995 0.84140021 2.2969551e-38
0.43444383 -0.32511187 0.84290898 2.2969551e-38
0.44456393 -0.32497385 0.84373581 2.2969551e-38
0.45447704 -0.32518673 0.84413606 2.2969551e-38
0.46361846 -0.32589969 0.84225649 2.2969551e-38
0.41739133 -0.31250381 0.84046936 2.2969551e-38
0.425367 -0.31505272 0.84195077 2.2969551e-38
0.43504003 -0.31499586 0.84307909 2.2969551e-38
0.44477573 -0.31481999 0.84344006 2.2969551e-38
0.45421216 -0.31565204 0.84255201 2.2969551e-38
0.4603278 -0.31826472 0.84003061 2.2969551e-38
0.40750527 -0.3042323 0.84028691 2.2969551e-38
0.41511452 -0.30491677 0.84086227 2.2969551e-38
0.42457703 -0.30475861 0.84217161 2.2969551e-38
0.4351632 -0.30538312 0.84230411 2.2969551e-38
0.44517854 -0.30500326 0.8420437 2.2969551e-38
0.45227304 -0.30558491 0.84167188 2.2969551e-38
0.41900182 -0.29587877 0.84029078 2.2969551e-38
0.42533627 -0.29501858 0.84182012 2.2969551e-38
0.43486747 -0.29486385 0.8431133 2.2969551e-38
0.44475049 -0.29514098 0.84185976 2.2969551e-38
0.45092991 -0.2979027 0.84104824 2.2969551e-38
0.41992494 -0.28925705 0.84004927 2.2969551e-38
0.42540395 -0.28528035 0.84109509 2.2969551e-38
0.43443999 -0.28485376 0.84235507 2.2969551e-38
0.44255453 -0.28680465 0.84101313 2.2969551e-38
0.426824 -0.27980801 0.84017807 2.2969551e-38
0.43446645 -0.27944508 0.8402372 2.2969551e-38
0.46812016 -0.35227117 0.85129488 2.2969551e-38
0.62714672 -0.29550716 0.62272608 5.7934863e-39
0.6163289 -0.28390199 0.6269353 5.7934863e-39
0.62093538 -0.28998542 0.62904096 5.7934863e-39
0.60750198 -0.27294162 0.62706697 5.7934863e-39
0.61276531 -0.27900538 0.62551111 5.7934863e-39
0.59899503 -0.26189962 0.6254375 5.7934863e-39
0.6030969 -0.26705182 0.62678307 5.7934863e-39
0.59376204 -0.25484869 0.62632096 5.7934863e-39
0.58598322 -0.24477853 0.62649506 5.7934863e-39
0.57671088 -0.23333313 0.62664443 5.7934863e-39
0.58105069 -0.23850322 0.62519079 5.7934863e-39
0.5675835 -0.22231226 0.62856215 5.7934863e-39
0.5720585 -0.2270959 0.62548614 5.7934863e-39
0.55924875 -0.21156003 0.62705594 5.7934863e-39
0.5623042 -0.21552956 0.6272856 5.7934863e-39
0.55406225 -0.20482291 0.62537134 5.7934863e-39
0.54680687 -0.1944489 0.62499064 5.7934863e-39
0.55010998 -0.19938073 0.62729561 5.7934863e-39
0.53943723 -0.18130827 0.6236344 5.7934863e-39
0.54204422 -0.18629861 0.62532878 5.7934863e-39
0.53627908 -0.17471057 0.62542665 5.7934863e-39
0.5373264 -0.16850924 0.62377983 5.7934863e-39
0.54496288 -0.16418508 0.62473691 5.7934863e-39
0.55184293 -0.1612089 0.62695116 5.7934863e-39
0.54962021 -0.15901552 0.62099963 5.7934863e-39
0.5558399 -0.15731813 0.6236878 5.7934863e-39
0.56379378 -0.1543311 0.62547189 5.7934863e-39
0.57007176 -0.15090445 0.62887156 5.7934863e-39
0.62883443 -0.30110991 0.63638723 5.7934863e-39
0.63192534 -0.30377188 0.6368534 5.7934863e-39
0.62469852 -0.29513955 0.63515759 5.7934863e-39
0.61746997 -0.28377751 0.63460231 5.7934863e-39
0.62097096 -0.28891894 0.63580889 5.7934863e-39
0.60823333 -0.27197167 0.63357508 5.7934863e-39
0.61231071 -0.27660605 0.63534856 5.7934863e-39
0.59912735 -0.26140159 0.63050061 5.7934863e-39
0.60365558 -0.26557952 0.63535315 5.7934863e-39
0.59557444 -0.25543898 0.63505882 5.7934863e-39
0.58689541 -0.24432985 0.63509423 5.7934863e-39
0.59086263 -0.24921641 0.63567013 5.7934863e-39
0.57736707 -0.23326804 0.63484293 5.7934863e-39
0.58161551 -0.23805766 0.63544655 5.7934863e-39
0.56780523 -0.22204885 0.63546115 5.7934863e-39
0.5720644 -0.22711593 0.63444078 5.7934863e-39
0.55896378 -0.21091925 0.63435078 5.7934863e-39
0.56309569 -0.21615326 0.63489014 5.7934863e-39
0.55444109 -0.20480752 0.63532513 5.7934863e-39
0.56295502 -0.20835742 0.63982564 5.7934863e-39
0.54762053 -0.19439729 0.6349377 5.7934863e-39
0.55073571 -0.19881034 0.63792187 5.7934863e-39
0.53933668 -0.18049374 0.63145185 5.7934863e-39
0.54218686 -0.1852762 0.63513923 5.7934863e-39
0.53724253 -0.17457266 0.63526654 5.7934863e-39
0.54010838 -0.17930184 0.63999909 5.7934863e-39
0.53823191 -0.16884248 0.6357857 5.7934863e-39
0.54487902 -0.1653318 0.6353457 5.7934863e-39
0.55295902 -0.16137439 0.63438064 5.7934863e-39
0.55797762 -0.15878737 0.63433194 5.7934863e-39
0.5652979 -0.15458022 0.63496155 5.7934863e-39
0.57170755 -0.15093793 0.63683134 5.7934863e-39
0.62936664 -0.30091411 0.64717555 5.7934863e-39
0.63187051 -0.30444714 0.64952558 5.7934863e-39
0.62548786 -0.29448843 0.64514059 5.7934863e-39
0.61826789 -0.28247392 0.64451277 5.7934863e-39
0.62141496 -0.28729433 0.6455071 5.7934863e-39
0.60916489 -0.2705768 0.64228237 5.7934863e-39
0.61379325 -0.27586511 0.64489383 5.7934863e-39
0.60498351 -0.26520082 0.64513206 5.7934863e-39
0.59616178 -0.25421304 0.644503 5.7934863e-39
0.60024333 -0.25915805 0.64669502 5.7934863e-39
0.58758241 -0.24321918 0.64469725 5.7934863e-39
0.59163326 -0.24826293 0.64550513 5.7934863e-39
0.57817912 -0.23211944 0.64536834 5.7934863e-39
0.58252364 -0.23700421 0.64537644 5.7934863e-39
0.56889743 -0.22221877 0.64410454 5.7934863e-39
0.57325351 -0.22679883 0.64498687 5.7934863e-39
0.55932277 -0.21038918 0.64476216 5.7934863e-39
0.56352383 -0.21559314 0.64512211 5.7934863e-39
0.55545402 -0.20479566 0.64460301 5.7934863e-39
0.54759061 -0.19324438 0.64530492 5.7934863e-39
0.55116719 -0.19837135 0.64422619 5.7934863e-39
0.54312623 -0.1849556 0.64498061 5.7934863e-39
0.5381881 -0.17392989 0.64474064 5.7934863e-39
0.54051435 -0.17900792 0.64650375 5.7934863e-39
0.53801209 -0.16898616 0.64465171 5.7934863e-39
0.54462427 -0.16569316 0.64416045 5.7934863e-39
0.55324829 -0.16136909 0.64355206 5.7934863e-39
0.55865568 -0.1586964 0.64269167 5.7934863e-39
0.56465429 -0.15574384 0.64301479 5.7934863e-39
0.57278812 -0.15155506 0.64219773 5.7934863e-39
0.63516748 -0.30348605 0.65305114 5.7934863e-39
0.64070034 -0.30592752 0.65637863 5.7934863e-39
0.62771744 -0.29432735 0.65157831 5.7934863e-39
0.63218623 -0.29796651 0.65342414 5.7934863e-39
0.61930192 -0.28171906 0.65522546 5.7934863e-39
0.62256438 -0.28654233 0.65324312 5.7934863e-39
0.61435276 -0.27481717 0.6552192 5.7934863e-39
0.60553038 -0.26410738 0.65493953 5.7934863e-39
0.61030054 -0.2694231 0.6568681 5.7934863e-39
0.59705007 -0.2536912 0.65478092 5.7934863e-39
0.60093015 -0.25813043 0.65647554 5.7934863e-39
0.5882324 -0.24251412 0.65458649 5.7934863e-39
0.5919348 -0.24707805 0.6551826 5.7934863e-39
0.57876748 -0.2310192 0.65396798 5.7934863e-39
0.58336526 -0.23643607 0.6552422 5.7934863e-39
0.56848097 -0.22022507 0.65003866 5.7934863e-39
0.57388479 -0.22515708 0.65489972 5.7934863e-39
0.5597381 -0.21019596 0.6509409 5.7934863e-39
0.56517065 -0.21527573 0.65573436 5.7934863e-39
0.55636072 -0.20516871 0.65503931 5.7934863e-39
0.54811925 -0.19313502 0.65572309 5.7934863e-39
0.55118603 -0.19805017 0.65575397 5.7934863e-39
0.54375446 -0.18511251 0.6542533 5.7934863e-39
0.53829634 -0.1736837 0.65514868 5.7934863e-39
0.54076606 -0.17885326 0.65396231 5.7934863e-39
0.53814888 -0.16740185 0.65646785 5.7934863e-39
0.54717183 -0.15756783 0.65853596 5.7934863e-39
0.55721235 -0.15303095 0.65831316 5.7934863e-39
0.56530219 -0.15146072 0.65334082 5.7934863e-39
0.56737113 -0.14881137 0.65815139 5.7934863e-39
0.57235223 -0.14819556 0.65562546 5.7934863e-39
0.63561547 -0.30262753 0.66642118 5.7934863e-39
0.62641823 -0.29288056 0.66662514 5.7934863e-39
0.63153845 -0.2982842 0.66697353 5.7934863e-39
0.64045566 -0.29983151 0.66741234 5.7934863e-39
0.61923635 -0.28126574 0.6644814 5.7934863e-39
0.62205178 -0.28622532 0.66561794 5.7934863e-39
0.61590409 -0.27535573 0.66529989 5.7934863e-39
0.60716158 -0.26404235 0.66479957 5.7934863e-39
0.61120868 -0.26891345 0.66493356 5.7934863e-39
0.59752524 -0.25218222 0.66503662 5.7934863e-39
0.60191011 -0.25756419 0.66517758 5.7934863e-39
0.58856732 -0.24111569 0.66394126 5.7934863e-39
0.59271091 -0.24611354 0.66513652 5.7934863e-39
0.57911223 -0.23032735 0.66014242 5.7934863e-39
0.58395225 -0.23509106 0.66532779 5.7934863e-39
0.57558984 -0.22497539 0.664994 5.7934863e-39
0.5665679 -0.21441697 0.66515577 5.7934863e-39
0.57132179 -0.21921669 0.66747946 5.7934863e-39
0.55694324 -0.20388217 0.66494262 5.7934863e-39
0.56147188 -0.20869565 0.66585797 5.7934863e-39
0.54864311 -0.19211757 0.66447115 5.7934863e-39
0.55198938 -0.19732939 0.6648168 5.7934863e-39
0.54418898 -0.18477647 0.66489536 5.7934863e-39
0.53859127 -0.17324772 0.66447788 5.7934863e-39
0.54102272 -0.17725356 0.66708416 5.7934863e-39
0.53846163 -0.16546823 0.66485232 5.7934863e-39
0.54135245 -0.160946 0.66510272 5.7934863e-39
0.54605091 -0.15779078 0.66567439 5.7934863e-39
0.55445105 -0.15295382 0.66592872 5.7934863e-39
0.56580007 -0.15038323 0.66644073 5.7934863e-39
0.56519347 -0.14945234 0.6652016 5.7934863e-39
0.57461876 -0.14849301 0.66522425 5.7934863e-39
0.58079147 -0.14893308 0.66847813 5.7934863e-39
0.63673109 -0.30284455 0.67519373 5.7934863e-39
0.62711132 -0.29312366 0.67551178 5.7934863e-39
0.6316908 -0.29803118 0.6745261 5.7934863e-39
0.61935556 -0.28028667 0.67467225 5.7934863e-39
0.62220788 -0.28525189 0.67486244 5.7934863e-39
0.6162734 -0.27476224 0.67529148 5.7934863e-39
0.6075657 -0.26298606 0.67505252 5.7934863e-39
0.61207622 -0.26834169 0.67552954 5.7934863e-39
0.59887558 -0.25226521 0.67460686 5.7934863e-39
0.60273957 -0.25694245 0.67535162 5.7934863e-39
0.58892924 -0.24006815 0.67129767 5.7934863e-39
0.59339195 -0.24525155 0.67484188 5.7934863e-39
0.5852536 -0.23465066 0.6749357 5.7934863e-39
0.57710594 -0.22426462 0.67468667 5.7934863e-39
0.58135891 -0.22924013 0.67680633 5.7934863e-39
0.5668121 -0.2123632 0.67442924 5.7934863e-39
0.57186872 -0.21761598 0.6759643 5.7934863e-39
0.55785072 -0.20242427 0.67564988 5.7934863e-39
0.5624063 -0.20758885 0.6746071 5.7934863e-39
0.54893345 -0.1920533 0.67523867 5.7934863e-39
0.55276501 -0.19685557 0.67534816 5.7934863e-39
0.5458371 -0.18520698 0.67500746 5.7934863e-39
0.53984934 -0.17051573 0.67626619 5.7934863e-39
0.54197848 -0.17570414 0.67505723 5.7934863e-39
0.53846753 -0.16553289 0.67501104 5.7934863e-39
0.54123294 -0.1609755 0.6741482 5.7934863e-39
0.54633349 -0.15764637 0.67554319 5.7934863e-39
0.5548929 -0.15320107 0.67501479 5.7934863e-39
0.56131071 -0.15052134 0.67645192 5.7934863e-39
0.5653646 -0.14880128 0.67768377 5.7934863e-39
0.57724512 -0.14982578 0.67035007 5.7934863e-39
0.63667655 -0.30067179 0.68162817 5.7934863e-39
0.64089328 -0.30335724 0.68197948 5.7934863e-39
0.6267221 -0.2924664 0.68527931 5.7934863e-39
0.6321516 -0.29723576 0.6841839 5.7934863e-39
0.61984092 -0.28075695 0.68430436 5.7934863e-39
0.62275708 -0.28584632 0.68544787 5.7934863e-39
0.61691338 -0.27506152 0.68548101 5.7934863e-39
0.6223557 -0.2722396 0.68239188 5.7934863e-39
0.60806686 -0.26215607 0.68623191 5.7934863e-39
0.61194748 -0.26718545 0.68458974 5.7934863e-39
0.59920973 -0.25114062 0.68441027 5.7934863e-39
0.60315579 -0.25605246 0.68479049 5.7934863e-39
0.59444612 -0.24505801 0.68504274 5.7934863e-39
0.58675534 -0.2350188 0.68500239 5.7934863e-39
0.57774997 -0.22314157 0.68470728 5.7934863e-39
0.58179343 -0.22834611 0.68555152 5.7934863e-39
0.56815547 -0.21166305 0.68400139 5.7934863e-39
0.57270634 -0.21657854 0.68530875 5.7934863e-39
0.5588786 -0.20148118 0.68523282 5.7934863e-39
0.56337762 -0.20636018 0.68497646 5.7934863e-39
0.54823005 -0.19190006 0.68300289 5.7934863e-39
0.55332208 -0.195365 0.68532908 5.7934863e-39
0.54618216 -0.18506379 0.68617451 5.7934863e-39
0.53901404 -0.17288679 0.68667716 5.7934863e-39
0.54134852 -0.17677471 0.68799984 5.7934863e-39
0.53807962 -0.16526119 0.68555593 5.7934863e-39
0.54090559 -0.1605562 0.6853835 5.7934863e-39
0.5452078 -0.15742603 0.68620747 5.7934863e-39
0.55500776 -0.15250991 0.68436188 5.7934863e-39
0.55965221 -0.14969099 0.68877614 5.7934863e-39
0.56554419 -0.14864028 0.68511963 5.7934863e-39
0.57391781 -0.14701022 0.68478125 5.7934863e-39
0.62766796 -0.29213059 0.69479209 5.7934863e-39
0.63262546 -0.2973201 0.69618231 5.7934863e-39
0.62358361 -0.28504401 0.69509089 5.7934863e-39
0.61750031 -0.27480301 0.69443464 5.7934863e-39
0.62054402 -0.27965963 0.69727665 5.7934863e-39
0.60888118 -0.26180983 0.6953091 5.7934863e-39
0.61253005 -0.26680556 0.69520301 5.7934863e-39
0.60361737 -0.25506616 0.6950081 5.7934863e-39
0.59573764 -0.24487981 0.69530642 5.7934863e-39
0.6031794 -0.24466115 0.69794428 5.7934863e-39
0.58715272 -0.23395108 0.69472486 5.7934863e-39
0.59117311 -0.23904416 0.6952244 5.7934863e-39
0.5782516 -0.22260191 0.69454741 5.7934863e-39
0.58199555 -0.22728166 0.69525158 5.7934863e-39
0.56850886 -0.21157272 0.69447029 5.7934863e-39
0.57324499 -0.21617393 0.69523168 5.7934863e-39
0.56413025 -0.20505942 0.69491011 5.7934863e-39
0.55495948 -0.19486938 0.69483608 5.7934863e-39
0.54738504 -0.18456277 0.69495195 5.7934863e-39
0.55068105 -0.18951286 0.69642085 5.7934863e-39
0.53984058 -0.17090118 0.69411588 5.7934863e-39
0.54284585 -0.17590062 0.69325936 5.7934863e-39
0.53906429 -0.1655003 0.6943568 5.7934863e-39
0.54109919 -0.16302435 0.69401574 5.7934863e-39
0.54612362 -0.15687987 0.69449228 5.7934863e-39
0.55347002 -0.15171333 0.69474447 5.7934863e-39
0.55906171 -0.1498941 0.69829828 5.7934863e-39
0.56510365 -0.14823294 0.69524753 5.7934863e-39
0.57391942 -0.14615102 0.69484276 5.7934863e-39
0.63706005 -0.30085883 0.70243406 5.7934863e-39
0.62846935 -0.29138049 0.70373535 5.7934863e-39
0.63341266 -0.29645684 0.7050069 5.7934863e-39
0.6244067 -0.28510615 0.7052815 5.7934863e-39
0.61760408 -0.27394345 0.70489085 5.7934863e-39
0.62063277 -0.27901587 0.70456827 5.7934863e-39
0.60948396 -0.26086131 0.70363045 5.7934863e-39
0.61274803 -0.26577491 0.70538181 5.7934863e-39
0.60523039 -0.25491202 0.70513386 5.7934863e-39
0.59665686 -0.24376437 0.70500576 5.7934863e-39
0.60052919 -0.24899311 0.70406061 5.7934863e-39
0.5880267 -0.2330606 0.70460492 5.7934863e-39
0.59221381 -0.23808749 0.705127 5.7934863e-39
0.57830167 -0.22128385 0.70399171 5.7934863e-39
0.58254206 -0.22623909 0.70517725 5.7934863e-39
0.56973302 -0.21065672 0.70368648 5.7934863e-39
0.5738976 -0.21554117 0.70546967 5.7934863e-39
0.56551564 -0.20504099 0.70525533 5.7934863e-39
0.55650252 -0.19410256 0.70459378 5.7934863e-39
0.5608989 -0.19913884 0.70590687 5.7934863e-39
0.548154 -0.1826859 0.70407164 5.7934863e-39
0.55190378 -0.1869317 0.70618767 5.7934863e-39
0.53938359 -0.17111373 0.70221412 5.7934863e-39
0.54389668 -0.17530093 0.70567709 5.7934863e-39
0.53951192 -0.1673895 0.70254242 5.7934863e-39
0.54081267 -0.16388835 0.7057299 5.7934863e-39
0.54459471 -0.15612748 0.70537674 5.7934863e-39
0.5551855 -0.15142886 0.70496845 5.7934863e-39
0.56532323 -0.14854918 0.70415652 5.7934863e-39
0.57479835 -0.14599127 0.7044583 5.7934863e-39
0.58053529 -0.14521825 0.70909482 5.7934863e-39
0.63803113 -0.30038136 0.71237266 5.7934863e-39
0.62882203 -0.29028267 0.71019363 5.7934863e-39
0.63383126 -0.29496765 0.71513152 5.7934863e-39
0.62583357 -0.2848562 0.714881 5.7934863e-39
0.61842638 -0.27340829 0.71432215 5.7934863e-39
0.6215328 -0.27816886 0.71573532 5.7934863e-39
0.61345798 -0.26518017 0.71510851 5.7934863e-39
0.60653311 -0.25502485 0.71498042 5.7934863e-39
0.61003363 -0.25985652 0.71639615 5.7934863e-39
0.59736711 -0.24281584 0.71500063 5.7934863e-39
0.60151809 -0.2480727 0.71470523 5.7934863e-39
0.58862329 -0.2319435 0.71472096 5.7934863e-39
0.59256929 -0.23680902 0.71512061 5.7934863e-39
0.57890332 -0.22036523 0.71224582 5.7934863e-39
0.5832864 -0.22525707 0.71531349 5.7934863e-39
0.57484519 -0.21491723 0.7149232 5.7934863e-39
0.5667302 -0.20485659 0.7151438 5.7934863e-39
0.57132733 -0.20976281 0.71881551 5.7934863e-39
0.55716473 -0.19333005 0.71486253 5.7934863e-39
0.56140316 -0.19840562 0.71505016 5.7934863e-39
0.54926407 -0.18164104 0.71583986 5.7934863e-39
0.55233353 -0.18665832 0.71517712 5.7934863e-39
0.54625857 -0.17464289 0.71281993 5.7934863e-39
0.5422594 -0.16433494 0.71450192 5.7934863e-39
0.54638553 -0.15620907 0.71402991 5.7934863e-39
0.55181885 -0.15191388 0.71639544 5.7934863e-39
0.55684263 -0.14848839 0.71641684 5.7934863e-39
0.56523556 -0.14721289 0.7152586 5.7934863e-39
0.57517785 -0.14614548 0.71479219 5.7934863e-39
0.58163184 -0.14553395 0.71508044 5.7934863e-39
0.6271649 -0.29455504 0.72701943 5.7934863e-39
0.63512963 -0.29458937 0.72505963 5.7934863e-39
0.64124703 -0.29876715 0.72931778 5.7934863e-39
0.62665164 -0.28367585 0.7254011 5.7934863e-39
0.63072282 -0.28904736 0.72616076 5.7934863e-39
0.61910379 -0.27220652 0.72437078 5.7934863e-39
0.62224144 -0.27705273 0.72494334 5.7934863e-39
0.61481696 -0.26534241 0.72490722 5.7934863e-39
0.60720211 -0.25439587 0.72457999 5.7934863e-39
0.61097592 -0.25931874 0.72729903 5.7934863e-39
0.59833813 -0.24253121 0.72516948 5.7934863e-39
0.60218322 -0.24742226 0.72490698 5.7934863e-39
0.58925122 -0.23123573 0.72426766 5.7934863e-39
0.59327644 -0.23612195 0.72524709 5.7934863e-39
0.58432597 -0.22483253 0.72510272 5.7934863e-39
0.57599211 -0.21436471 0.72466403 5.7934863e-39
0.58039069 -0.21936293 0.72731292 5.7934863e-39
0.5669961 -0.20316502 0.72425771 5.7934863e-39
0.57123655 -0.20796148 0.72639406 5.7934863e-39
0.5581044 -0.19250654 0.72466058 5.7934863e-39
0.562298 -0.1973037 0.72518802 5.7934863e-39
0.54887259 -0.18174793 0.72384065 5.7934863e-39
0.55296606 -0.18635835 0.72561824 5.7934863e-39
0.54505259 -0.17458838 0.7253139 5.7934863e-39
0.54366857 -0.16569896 0.72447497 5.7934863e-39
0.54596555 -0.15529872 0.72609395 5.7934863e-39
0.55337936 -0.15072072 0.72002673 5.7934863e-39
0.55437922 -0.14845775 0.7253387 5.7934863e-39
0.56634659 -0.14652207 0.72460532 5.7934863e-39
0.57732671 -0.14566053 0.72610945 5.7934863e-39
0.63632286 -0.29267055 0.7345342 5.7934863e-39
0.64211428 -0.29760638 0.7339108 5.7934863e-39
0.62792516 -0.28344026 0.73465061 5.7934863e-39
0.63212168 -0.28791398 0.73607302 5.7934863e-39
0.61939365 -0.27091235 0.73468733 5.7934863e-39
0.62287539 -0.27609643 0.73527354 5.7934863e-39
0.61531866 -0.26477379 0.7348367 5.7934863e-39
0.60727185 -0.25349519 0.73487544 5.7934863e-39
0.61092883 -0.25829944 0.73559016 5.7934863e-39
0.59847707 -0.24207506 0.7351594 5.7934863e-39
0.60230768 -0.24720132 0.73515368 5.7934863e-39
0.58963978 -0.23030509 0.73328745 5.7934863e-39
0.59351194 -0.23534767 0.73481834 5.7934863e-39
0.58586639 -0.22506019 0.73525727 5.7934863e-39
0.5768013 -0.21370216 0.73483276 5.7934863e-39
0.58090597 -0.21877776 0.73497009 5.7934863e-39
0.56788051 -0.2026196 0.73514253 5.7934863e-39
0.57195097 -0.20755608 0.73564678 5.7934863e-39
0.55870086 -0.19150165 0.73465687 5.7934863e-39
0.56288522 -0.19648528 0.73536748 5.7934863e-39
0.54860204 -0.1803565 0.73063433 5.7934863e-39
0.55342573 -0.18513344 0.73526174 5.7934863e-39
0.54767072 -0.17506085 0.73540372 5.7934863e-39
0.55066037 -0.17881554 0.73911589 5.7934863e-39
0.54495496 -0.16519751 0.7365545 5.7934863e-39
0.54657656 -0.15597071 0.73400795 5.7934863e-39
0.55090892 -0.1510099 0.73390609 5.7934863e-39
0.55468965 -0.14749545 0.73546696 5.7934863e-39
0.56309205 -0.1454064 0.73566896 5.7934863e-39
0.57414889 -0.14505801 0.73491961 5.7934863e-39
0.58092821 -0.14452991 0.73845553 5.7934863e-39
0.63789034 -0.2919324 0.74473363 5.7934863e-39
0.64125431 -0.29590261 0.74448591 5.7934863e-39
0.62907916 -0.28184181 0.74443209 5.7934863e-39
0.63330543 -0.28648838 0.74534923 5.7934863e-39
0.62373072 -0.27488947 0.74502367 5.7934863e-39
0.67344832 -0.27476242 0.74882728 5.7934863e-39
0.6162892 -0.26512843 0.74478418 5.7934863e-39
0.62053859 -0.26938236 0.74969113 5.7934863e-39
0.66876954 -0.26468563 0.74949682 5.7934863e-39
0.67042297 -0.26375413 0.74790221 5.7934863e-39
0.60742825 -0.25316527 0.74573797 5.7934863e-39
0.61127287 -0.25801456 0.7445128 5.7934863e-39
0.66717356 -0.25583437 0.74797744 5.7934863e-39
0.59877586 -0.24223158 0.7447713 5.7934863e-39
0.6025722 -0.24714118 0.74539369 5.7934863e-39
0.6581924 -0.24252529 0.7477349 5.7934863e-39
0.66288263 -0.24836989 0.74754667 5.7934863e-39
0.59359813 -0.2350139 0.74518055 5.7934863e-39
0.64819795 -0.232403 0.7490139 5.7934863e-39
0.65307415 -0.23473173 0.74646306 5.7934863e-39
0.58628231 -0.22484592 0.74542129 5.7934863e-39
0.59020346 -0.2296316 0.74890637 5.7934863e-39
0.64578378 -0.22541708 0.74683547 5.7934863e-39
0.6500476 -0.22869386 0.74486637 5.7934863e-39
0.57769412 -0.21324375 0.74504149 5.7934863e-39
0.58156484 -0.21805997 0.74609739 5.7934863e-39
0.63576251 -0.21527906 0.74930239 5.7934863e-39
0.64107996 -0.21836723 0.74697185 5.7934863e-39
0.56882286 -0.20194478 0.74401319 5.7934863e-39
0.57295537 -0.2067765 0.74606907 5.7934863e-39
0.6273151 -0.20119512 0.74724919 5.7934863e-39
0.63134253 -0.20667756 0.74769449 5.7934863e-39
0.55944848 -0.19076456 0.74343866 5.7934863e-39
0.56378305 -0.19527325 0.74568653 5.7934863e-39
0.61811775 -0.19110161 0.74992752 5.7934863e-39
0.62425309 -0.19588631 0.74697578 5.7934863e-39
0.55553156 -0.18472464 0.74499428 5.7934863e-39
0.56004119 -0.18828379 0.74966079 5.7934863e-39
0.61403906 -0.18417923 0.74917197 5.7934863e-39
0.54889315 -0.17322429 0.74691588 5.7934863e-39
0.55141699 -0.17653961 0.74490112 5.7934863e-39
0.60672736 -0.17356417 0.74867481 5.7934863e-39
0.61028868 -0.17882697 0.74900997 5.7934863e-39
0.54802054 -0.16449016 0.7431435 5.7934863e-39
0.55008835 -0.16957447 0.74290025 5.7934863e-39
0.5994069 -0.16307423 0.74805212 5.7934863e-39
0.60186332 -0.16606613 0.74807817 5.7934863e-39
0.54715139 -0.15490676 0.74530834 5.7934863e-39
0.5505259 -0.15051226 0.74005407 5.7934863e-39
0.59743065 -0.15983284 0.74675107 5.7934863e-39
0.54991311 -0.14998505 0.74310893 5.7934863e-39
0.55509073 -0.14828905 0.74380922 5.7934863e-39
0.56471503 -0.14626533 0.74358064 5.7934863e-39
0.57539517 -0.14528957 0.74512905 5.7934863e-39
0.58123207 -0.14845414 0.74966264 5.7934863e-39
0.63927925 -0.29109141 0.75222301 5.7934863e-39
0.64513391 -0.29341716 0.75389421 5.7934863e-39
0.65510643 -0.29418665 0.75694197 5.7934863e-39
0.66149229 -0.29326764 0.75915813 5.7934863e-39
0.63520586 -0.28395602 0.75488275 5.7934863e-39
0.64446741 -0.28511137 0.75786853 5.7934863e-39
0.65488106 -0.2850619 0.75846636 5.7934863e-39
0.66382504 -0.28330338 0.75706601 5.7934863e-39
0.62660921 -0.27385205 0.75497621 5.7934863e-39
0.63443583 -0.2765401 0.75923592 5.7934863e-39
0.64605063 -0.27573013 0.75927407 5.7934863e-39
0.65569526 -0.27481642 0.75759596 5.7934863e-39
0.66383052 -0.27501923 0.75531304 5.7934863e-39
0.67081314 -0.27632657 0.75135201 5.7934863e-39
0.61777133 -0.26345679 0.75333059 5.7934863e-39
0.62282175 -0.26575264 0.75709796 5.7934863e-39
0.64775336 -0.26453727 0.75920951 5.7934863e-39
0.6551984 -0.26510298 0.75741327 5.7934863e-39
0.66307533 -0.26489246 0.75385207 5.7934863e-39
0.60851425 -0.25265345 0.75219399 5.7934863e-39
0.61470598 -0.25579533 0.75576431 5.7934863e-39
0.6239602 -0.25567883 0.75935209 5.7934863e-39
0.63547593 -0.25259402 0.75944716 5.7934863e-39
0.64480835 -0.25469661 0.75821203 5.7934863e-39
0.65508568 -0.25477663 0.75550401 5.7934863e-39
0.6634841 -0.25653327 0.75117177 5.7934863e-39
0.59882683 -0.24086623 0.75134784 5.7934863e-39
0.60563374 -0.24495709 0.75567609 5.7934863e-39
0.61433589 -0.24589723 0.75928748 5.7934863e-39
0.62557459 -0.24456984 0.75923747 5.7934863e-39
0.63528901 -0.24528141 0.7579394 5.7934863e-39
0.64488745 -0.24475117 0.75588012 5.7934863e-39
0.65348583 -0.24586803 0.75314039 5.7934863e-39
0.59608293 -0.23400417 0.75519532 5.7934863e-39
0.60268545 -0.23640542 0.75879163 5.7934863e-39
0.61553329 -0.2342508 0.75910789 5.7934863e-39
0.62484223 -0.23507363 0.7578969 5.7934863e-39
0.63485956 -0.23536846 0.75593454 5.7934863e-39
0.64382052 -0.2356912 0.75378335 5.7934863e-39
0.65146786 -0.23770972 0.7503503 5.7934863e-39
0.58759713 -0.22344404 0.75391483 5.7934863e-39
0.59356946 -0.22554946 0.75821489 5.7934863e-39
0.60679311 -0.22518907 0.75936627 5.7934863e-39
0.61530143 -0.22503997 0.75777489 5.7934863e-39
0.62477702 -0.22489846 0.75598127 5.7934863e-39
0.63491684 -0.22558472 0.75377786 5.7934863e-39
0.64159536 -0.22619623 0.75103974 5.7934863e-39
0.57939565 -0.2116985 0.75227439 5.7934863e-39
0.58489841 -0.21533422 0.75652319 5.7934863e-39
0.59172857 -0.21794002 0.75974327 5.7934863e-39
0.60496491 -0.21459489 0.75879079 5.7934863e-39
0.61503196 -0.21526229 0.75633705 5.7934863e-39
0.62467122 -0.2152386 0.75409114 5.7934863e-39
0.63205683 -0.21653983 0.75154698 5.7934863e-39
0.56954074 -0.20058651 0.75022179 5.7934863e-39
0.57565922 -0.20425007 0.75515383 5.7934863e-39
0.58405858 -0.20652506 0.75943655 5.7934863e-39
0.59776229 -0.20324908 0.75947934 5.7934863e-39
0.60491031 -0.20533735 0.75773793 5.7934863e-39
0.61522162 -0.20482074 0.75483727 5.7934863e-39
0.62389928 -0.20633106 0.75245726 5.7934863e-39
0.56692547 -0.19409327 0.75463045 5.7934863e-39
0.57244456 -0.19715102 0.75809228 5.7934863e-39
0.59604412 -0.19439913 0.75876057 5.7934863e-39
0.60519725 -0.19485043 0.75647348 5.7934863e-39
0.61429983 -0.19575593 0.75368178 5.7934863e-39
0.62114429 -0.19636258 0.75020587 5.7934863e-39
0.5579977 -0.18284369 0.75356925 5.7934863e-39
0.56252295 -0.1865335 0.75657374 5.7934863e-39
0.58747482 -0.1838492 0.75960922 5.7934863e-39
0.59476757 -0.18454403 0.75798815 5.7934863e-39
0.60432565 -0.18562965 0.75509703 5.7934863e-39
0.61214846 -0.18723102 0.75161946 5.7934863e-39
0.54947662 -0.171994 0.75053751 5.7934863e-39
0.55474555 -0.17514218 0.75542295 5.7934863e-39
0.57782185 -0.17241766 0.75949764 5.7934863e-39
0.58517712 -0.17488977 0.75841194 5.7934863e-39
0.59475821 -0.17518747 0.75619465 5.7934863e-39
0.60351449 -0.1763698 0.75233185 5.7934863e-39
0.54762936 -0.1643451 0.75340271 5.7934863e-39
0.55312407 -0.16409163 0.75812984 5.7934863e-39
0.5659737 -0.16316061 0.75916785 5.7934863e-39
0.57498497 -0.16462836 0.75822192 5.7934863e-39
0.58467156 -0.16507223 0.75645268 5.7934863e-39
0.59395409 -0.16595493 0.75352854 5.7934863e-39
0.54852515 -0.15586866 0.75194335 5.7934863e-39
0.5544433 -0.15468383 0.75609547 5.7934863e-39
0.56494731 -0.15522987 0.75749183 5.7934863e-39
0.57517099 -0.15478811 0.75520533 5.7934863e-39
0.58438694 -0.15610097 0.75350976 5.7934863e-39
0.59278166 -0.15992978 0.75180566 5.7934863e-39
0.55625844 -0.14808063 0.7545439 5.7934863e-39
0.56493634 -0.1471699 0.75532573 5.7934863e-39
0.57392424 -0.14723559 0.75250703 5.7934863e-39
0.6599142 -0.28472382 0.76029724 5.7934863e-39
0.66208822 -0.28653288 0.76046956 5.7934863e-39
0.63505423 -0.27194351 0.76031888 5.7934863e-39
0.6426096 -0.2715708 0.76024276 5.7934863e-39
0.62741965 -0.26382133 0.76064599 5.7934863e-39
0.6349144 -0.26510033 0.76104677 5.7934863e-39
0.64238304 -0.26543757 0.76036429 5.7934863e-39
0.61792976 -0.25181955 0.76055825 5.7934863e-39
0.62498057 -0.25526616 0.76067895 5.7934863e-39
0.63408363 -0.25703228 0.76051605 5.7934863e-39
0.61481673 -0.24517941 0.76039529 5.7934863e-39
0.6213361 -0.24905835 0.76021719 5.7934863e-39
0.60697258 -0.23406598 0.76036322 5.7934863e-39
0.61132401 -0.23761125 0.76040953 5.7934863e-39
0.5983777 -0.22313029 0.76023245 5.7934863e-39
0.60313374 -0.22572671 0.76035672 5.7934863e-39
0.58939213 -0.21034834 0.76000845 5.7934863e-39
0.59586674 -0.21497439 0.76033604 5.7934863e-39
0.57662082 -0.20284149 0.7601946 5.7934863e-39
0.58700246 -0.2030815 0.76016229 5.7934863e-39
0.59339339 -0.20575185 0.7603271 5.7934863e-39
0.57555962 -0.19383787 0.76117396 5.7934863e-39
0.58504492 -0.19521508 0.76076823 5.7934863e-39
0.59152502 -0.19714804 0.7603367 5.7934863e-39
0.56645948 -0.18427862 0.76163644 5.7934863e-39
0.57478803 -0.185122 0.76159251 5.7934863e-39
0.58320481 -0.18590155 0.76053923 5.7934863e-39
0.55833441 -0.17300877 0.76115358 5.7934863e-39
0.56489313 -0.17517935 0.7617774 5.7934863e-39
0.57423353 -0.17571653 0.7609477 5.7934863e-39
0.58078468 -0.17963168 0.76036692 5.7934863e-39
0.55684656 -0.16685754 0.76085681 5.7934863e-39
0.56416041 -0.16702878 0.76072156 5.7934863e-39
