# .PCD v0.7 - Point Cloud Data file format
VERSION 0.7
FIELDS x y z rgb
SIZE 4 4 4 4
TYPE F F F F
COUNT 1 1 1 1
WIDTH 304
HEIGHT 1
VIEWPOINT 0 0 0 1 0 0 0
POINTS 304
DATA ascii
0.63948649 -0.41675252 0.61000061 1.097128e-38
0.33816224 -0.37499368 0.60899365 9.0351717e-39
0.37459433 -0.3750605 0.60999066 1.0879084e-38
0.4233332 -0.37625396 0.61208159 1.0600697e-38
0.45299757 -0.39448422 0.6188404 9.3960369e-39
0.588494 -0.35907409 0.61003649 1.097128e-38
0.62612611 -0.37262535 0.60999918 1.097128e-38
0.67356479 -0.37500715 0.61000955 1.097128e-38
0.72397274 -0.37546116 0.61003035 1.097128e-38
0.77324986 -0.3821415 0.60999876 1.097128e-38
0.82854784 -0.37828466 0.61000288 1.1063476e-38
0.85982865 -0.37505999 0.61000127 1.1063476e-38
0.33817795 -0.32494935 0.60901153 9.0351717e-39
0.37470767 -0.32493466 0.61013299 1.0786889e-38
0.41077507 -0.3290979 0.61653131 9.7666187e-39
0.49897873 -0.30026552 0.60999972 1.097128e-38
0.53150898 -0.31291607 0.61000162 1.097128e-38
0.57546133 -0.32409686 0.60998839 1.097128e-38
0.62331301 -0.32526016 0.61066961 1.0695055e-38
0.66984528 -0.33688441 0.61000067 1.097128e-38
0.7105124 -0.34496433 0.61000085 1.097128e-38
0.83088714 -0.32265303 0.61000085 1.097128e-38
0.85990387 -0.32484064 0.61002678 1.097128e-38
0.33816746 -0.27494287 0.60901093 9.0351717e-39
0.37537995 -0.27559909 0.6109758 1.0693973e-38
0.42040521 -0.27174971 0.61879063 9.3956754e-39
0.47870556 -0.2689141 0.60999113 1.0879084e-38
0.52508491 -0.27502868 0.60999334 1.0879084e-38
0.57605469 -0.27367529 0.61173981 1.0694696e-38
0.61296648 -0.28273726 0.62297839 7.3764113e-39
0.78717571 -0.2670739 0.6099956 1.097128e-38
0.82516724 -0.2750093 0.61001623 1.097128e-38
0.85976195 -0.27491876 0.60996693 1.097128e-38
0.33815756 -0.2250061 0.60900599 9.0351717e-39
0.37460178 -0.22497034 0.60998929 1.0879084e-38
0.42450693 -0.22504091 0.60998893 1.0879084e-38
0.47477478 -0.22502071 0.6099987 1.0879084e-38
0.5250836 -0.22496887 0.60999334 1.0879084e-38
0.56769639 -0.22902961 0.62047988 1.0510666e-38
0.74246043 -0.2114179 0.61000091 1.097128e-38
0.77593404 -0.22427262 0.60999089 1.0879084e-38
0.8251099 -0.22501528 0.61000085 1.097128e-38
0.85986066 -0.22479786 0.61000133 1.097128e-38
0.33818498 -0.17495644 0.60899764 9.0351717e-39
0.37459233 -0.17502126 0.6099838 1.0879084e-38
0.42446652 -0.17501014 0.60998785 1.0879084e-38
0.47485122 -0.17500521 0.60999221 1.0879084e-38
0.52883136 -0.17542653 0.61661834 8.4812987e-39
0.56447035 -0.15756337 0.62441987 5.8094569e-39
0.62728262 -0.15615338 0.61000061 1.0879084e-38
0.67606366 -0.16145407 0.61000067 1.0879084e-38
0.72650504 -0.17284143 0.61000234 1.0879084e-38
0.77522272 -0.17500189 0.61000723 1.0879084e-38
0.8251034 -0.17500477 0.60998529 1.0879084e-38
0.85986048 -0.17488313 0.61000127 1.097128e-38
0.33818722 -0.12496573 0.60900509 8.9429761e-39
0.37459648 -0.12501636 0.60998344 1.0786889e-38
0.42447463 -0.1250156 0.60999143 1.0879084e-38
0.47480515 -0.12494665 0.60998648 1.0879084e-38
0.52512926 -0.12500611 0.60999334 1.0879084e-38
0.57464749 -0.12502287 0.60999441 1.0879084e-38
0.62392932 -0.12499918 0.6099751 1.0879084e-38
0.67358428 -0.12502669 0.61001849 1.0879084e-38
0.72447944 -0.12493106 0.61000377 1.0879084e-38
0.77516145 -0.1251168 0.60999471 1.0879084e-38
0.82508928 -0.12506472 0.61000776 1.0879084e-38
0.8599717 -0.1251079 0.61000443 1.0879084e-38
0.33813497 -0.074976422 0.60900414 8.9429761e-39
0.37455973 -0.074990295 0.60998619 1.0786889e-38
0.4251495 -0.074210867 0.61226743 1.0417746e-38
0.47157049 -0.088614836 0.60998625 1.0786889e-38
0.52972007 -0.088632375 0.61000049 1.0879084e-38
0.57573169 -0.076191209 0.60999566 1.0879084e-38
0.6239115 -0.074912839 0.6099956 1.0879084e-38
0.67475873 -0.073990948 0.61119437 1.0786529e-38
0.71840507 -0.078138046 0.61481607 1.0784008e-38
0.77358812 -0.088239133 0.61000085 1.0879084e-38
0.82953823 -0.083062455 0.61000097 1.0879084e-38
0.8598823 -0.075396433 0.61000127 1.0879084e-38
0.33814704 -0.02502759 0.608989 8.9429761e-39
0.37464586 -0.024954965 0.60999334 1.0786889e-38
0.42588115 -0.026396416 0.61256242 1.0234075e-38
0.46893498 -0.016715415 0.61561251 9.6805425e-39
0.52693236 -0.011356388 0.61000055 1.0786889e-38
0.57632118 -0.023617405 0.60999519 1.0879084e-38
0.62408566 -0.024852227 0.60999066 1.0879084e-38
0.67288458 -0.026902478 0.62039411 9.6733329e-39
0.70043844 -0.048032701 0.61000097 1.0879084e-38
0.84559053 -0.0093498612 0.61000192 1.0879084e-38
0.86097765 -0.022454159 0.61000144 1.0879084e-38
0.33820134 0.024773026 0.6090042 8.9429761e-39
0.37445912 0.025035968 0.60999066 1.0786889e-38
0.42435238 0.024974527 0.60999733 1.0786889e-38
0.47486517 0.025224976 0.61012971 1.0694693e-38
0.52504021 0.024921866 0.60998768 1.0786889e-38
0.57463408 0.024875691 0.61000031 1.0786889e-38
0.62869239 0.0273172 0.6162172 1.069145e-38
0.65570527 0.010374661 0.62467861 9.2998644e-39
0.83203888 0.029743599 0.61000091 1.0879084e-38
0.85977572 0.024434417 0.61000127 1.0879084e-38
0.33813301 0.07488028 0.60901845 8.9429761e-39
0.37465706 0.074946865 0.60999084 1.0694693e-38
0.42459047 0.07494241 0.61014676 1.0694693e-38
0.46909168 0.078561142 0.61766011 1.0051447e-38
0.50925779 0.087206595 0.62155193 9.9603216e-39
0.5799734 0.051701523 0.61000025 1.0786889e-38
0.63315558 0.058202595 0.61164236 1.0694333e-38
0.67106962 0.072459795 0.61778313 1.0415945e-38
0.72411633 0.088580586 0.61000067 1.0786889e-38
0.77905774 0.084843032 0.61000079 1.0786889e-38
0.82499903 0.075367831 0.60998195 1.0786889e-38
0.85984939 0.074859068 0.61000127 1.0786889e-38
0.33816186 0.12504418 0.60900325 8.8507805e-39
0.3746033 0.12497564 0.6099906 1.0694693e-38
0.42452613 0.12501948 0.60998547 1.0786889e-38
0.47488928 0.12500149 0.60998994 1.0694693e-38
0.52391422 0.12573737 0.61166644 1.0603211e-38
0.57255268 0.13614731 0.61005229 1.0694693e-38
0.60741889 0.13936765 0.62515694 8.2961872e-39
0.69548172 0.10295258 0.61000091 1.0786889e-38
0.73153555 0.11468054 0.61000067 1.0786889e-38
0.7751652 0.12499104 0.6099925 1.0786889e-38
0.82506275 0.12500092 0.61000371 1.0786889e-38
0.85986042 0.12494608 0.61000133 1.0786889e-38
0.338173 0.17497404 0.60900152 8.8507805e-39
0.3745957 0.17500912 0.6099906 1.0694693e-38
0.42542192 0.17594968 0.61117607 1.0602495e-38
0.47436491 0.17514712 0.61069626 1.0786884e-38
0.52509105 0.17502253 0.60999185 1.0786889e-38
0.57469523 0.17493787 0.60999441 1.0786889e-38
0.62233639 0.17693093 0.61041343 1.0786889e-38
0.67182398 0.18478996 0.61000383 1.0786889e-38
0.72650158 0.18358722 0.61000782 1.0786889e-38
0.77525645 0.17502536 0.60998809 1.0786889e-38
0.82512164 0.17505677 0.61001199 1.0786889e-38
0.85994756 0.17487209 0.61000484 1.0786889e-38
0.33813536 0.22494493 0.60896891 8.8507805e-39
0.37457886 0.22500944 0.60999614 1.0694693e-38
0.4237034 0.22255021 0.61614239 9.8649226e-39
0.4879002 0.20385405 0.60994494 1.0694693e-38
0.53130406 0.21040957 0.61000049 1.0694693e-38
0.57492399 0.22473906 0.60998732 1.0694693e-38
0.62159079 0.22619303 0.61906374 9.1288051e-39
0.67652261 0.21690688 0.61000067 1.0694693e-38
0.72452509 0.22487533 0.61000377 1.0694693e-38
0.77521408 0.22508183 0.60999626 1.0694693e-38
0.82513297 0.22505507 0.61000085 1.0694693e-38
0.85986006 0.22497669 0.6100226 1.0786889e-38
0.3382026 0.27507734 0.60901135 8.8507805e-39
0.37465256 0.27497754 0.60999238 1.0694693e-38
0.42447543 0.27498803 0.60999525 1.0602497e-38
0.47188845 0.28040072 0.60999441 1.0694693e-38
0.52851129 0.28626475 0.61000049 1.0694693e-38
0.57778603 0.27662909 0.61871904 7.6569092e-39
0.6058318 0.2576451 0.6281926 5.4470896e-39
0.72795504 0.27663642 0.60999948 1.0694693e-38
0.77504414 0.2750904 0.60998291 1.0694693e-38
0.82510448 0.27504054 0.61000878 1.0694693e-38
0.85986024 0.27503726 0.61000127 1.0694693e-38
0.3381564 0.32502156 0.6090036 8.8507805e-39
0.37456873 0.32502931 0.60999578 1.0694693e-38
0.42447248 0.32497188 0.60998571 1.0694693e-38
0.47486299 0.32501775 0.60998857 1.0694693e-38
0.52507573 0.32499993 0.60999334 1.0694693e-38
0.5667873 0.32317266 0.62113994 7.1952206e-39
0.68381101 0.33184773 0.61000067 1.0694693e-38
0.72455144 0.32506782 0.61001766 1.0694693e-38
0.77520162 0.32497597 0.61000192 1.0694693e-38
0.82515532 0.32500395 0.61000991 1.0694693e-38
0.85986018 0.32495204 0.61000127 1.0694693e-38
0.33815941 0.3750115 0.60899889 8.8507805e-39
0.37457556 0.37502873 0.60999191 1.0602497e-38
0.42449299 0.37499633 0.60998386 1.0602497e-38
0.47484404 0.37498394 0.60998476 1.0694693e-38
0.52514046 0.37500972 0.61000556 1.0602497e-38
0.57469922 0.37504846 0.61003768 1.0602497e-38
0.62287176 0.38079995 0.60999286 1.0694693e-38
0.67375135 0.37523136 0.61001259 1.0694693e-38
0.72449946 0.37503433 0.61000377 1.0694693e-38
0.77515256 0.3749322 0.61002284 1.0694693e-38
0.82510895 0.37502214 0.61001152 1.0694693e-38
0.85980707 0.37503791 0.61000127 1.0694693e-38
0.45702806 -0.40832394 0.67476034 6.1533524e-39
0.43591663 -0.37301579 0.67666692 8.7337286e-39
0.45127383 -0.39725491 0.65969944 6.2448278e-39
0.39899981 -0.30262613 0.68159485 6.2448278e-39
0.40992489 -0.32440704 0.67592841 8.0905172e-39
0.63630211 -0.30305865 0.66439801 3.1365516e-39
0.39841092 -0.29358667 0.67690891 6.4306581e-39
0.42085621 -0.27691478 0.67459482 7.3558514e-39
0.59781855 -0.25270212 0.66507781 8.1092441e-39
0.61625862 -0.27579126 0.67581618 6.0856921e-39
0.57648468 -0.22442977 0.67516929 9.0319235e-39
0.54280412 -0.17298308 0.67590433 2.8599577e-39
0.55456853 -0.17371663 0.67860842 4.3347122e-39
0.56883723 -0.14827888 0.67866987 5.1641057e-39
0.43759078 -0.060925916 0.67673165 6.9153953e-39
0.45236245 -0.074186914 0.68669552 7.6562198e-39
0.69816607 -0.052449804 0.67683119 8.3696334e-39
0.70726609 -0.06180181 0.67809367 9.480304e-39
0.44092438 -0.042435214 0.67616439 6.7342663e-39
0.46271566 -0.026624743 0.67531985 5.3513444e-39
0.67871624 -0.024621336 0.67701375 7.7228445e-39
0.45934334 0.049151469 0.67340225 5.5317378e-39
0.64331359 0.03318369 0.67646265 9.6574912e-39
0.65601981 0.0086768931 0.67780811 9.3827078e-39
0.44936496 0.053850103 0.66524374 7.5664218e-39
0.4689734 0.070494615 0.67501116 8.2132107e-39
0.50570297 0.096264482 0.67604542 8.3064699e-39
0.64864838 0.050923415 0.67824328 9.2829479e-39
0.66529214 0.061951149 0.67767155 9.4759824e-39
0.5272184 0.10876253 0.67554313 8.7663761e-39
0.6069501 0.1393704 0.6756134 7.7375904e-39
0.44498673 0.19608055 0.67635018 1.1706519e-38
0.4525196 0.19150352 0.67571986 1.2075301e-38
0.60928786 0.15316086 0.67780489 1.1893236e-38
0.43182629 0.21847892 0.67497265 7.9302002e-39
0.63427979 0.23801078 0.65472215 4.5362764e-39
0.65883273 0.24197906 0.65700263 7.1077361e-39
0.59090775 0.2883262 0.6538136 2.9557252e-39
0.62473607 0.27500984 0.65528017 5.2613264e-39
0.65726238 0.26370358 0.65688497 4.7074492e-39
0.58425021 0.32008442 0.65487164 4.8911062e-39
0.61243784 0.31650263 0.656901 5.629037e-39
0.44890845 -0.40165821 0.7328558 6.2448278e-39
0.458808 -0.41426423 0.72252506 6.2448278e-39
0.43241912 -0.37280726 0.72728813 7.9976069e-39
0.39815971 -0.30456489 0.7253409 6.2448278e-39
0.40940756 -0.32844478 0.72551352 7.7220976e-39
0.63738376 -0.30069968 0.70574695 2.4908052e-39
0.39674464 -0.29309982 0.72666848 6.706159e-39
0.41919687 -0.2768712 0.72649294 7.356213e-39
0.62114084 -0.27477255 0.7250452 3.4231844e-39
0.67013222 -0.26502877 0.74847668 4.7968296e-39
0.58190566 -0.22207536 0.72511083 4.1618214e-39
0.61147344 -0.23944092 0.73382622 4.2518773e-39
0.65698016 -0.24023597 0.74702483 4.6127831e-39
0.54534358 -0.1656976 0.72340089 2.8678652e-39
0.55678469 -0.18454063 0.72791958 2.8682225e-39
0.6109609 -0.17933039 0.74860924 5.8113333e-39
0.54991311 -0.14998505 0.74310893 2.8599577e-39
0.56582248 -0.14686841 0.72753918 2.8599619e-39
0.44264567 -0.058426637 0.70749998 5.2475587e-39
0.46147838 -0.058512148 0.71140605 6.3488475e-39
0.69950384 -0.05167776 0.70036232 1.4290321e-38
0.71432477 -0.055929057 0.70494705 1.5211916e-38
0.44394207 -0.044347141 0.70686293 4.6018291e-39
0.46899638 -0.036273364 0.71082807 5.7052844e-39
0.68686324 -0.018694343 0.70429373 8.3913367e-39
0.72200614 -0.025962457 0.70596516 1.6134246e-38
0.75337261 -0.033865321 0.70468855 1.843876e-38
0.45604855 0.048223075 0.72243828 6.4536913e-39
0.64632922 0.035329856 0.70258325 1.511972e-38
0.67472422 0.025430052 0.70526254 1.2539371e-38
0.71095002 0.016666358 0.7061559 6.6403835e-39
0.44498876 0.052974992 0.71976638 7.0107677e-39
0.46882713 0.070047088 0.725357 8.3025589e-39
0.50599122 0.096321605 0.72689855 9.1287701e-39
0.67640424 0.05754232 0.70481288 1.5949841e-38
0.70015979 0.054427616 0.70217991 2.0375233e-38
0.52736628 0.1086925 0.72465491 8.9450893e-39
0.61746246 0.13593069 0.71780246 1.3359364e-38
0.44426715 0.19518678 0.7150048 1.3443874e-38
0.45582587 0.19425488 0.71993506 1.7605154e-38
0.61406654 0.15250315 0.70641899 1.4013736e-38
0.4361901 0.22007899 0.72022313 1.4468765e-38
0.45892179 0.21604292 0.72690511 2.0186231e-38
0.44806394 -0.40304843 0.77804887 7.0781884e-39
0.45505154 -0.41405237 0.77360392 6.6143291e-39
0.43172529 -0.37375927 0.77530283 7.1703798e-39
0.3973473 -0.30620256 0.77298898 6.6143277e-39
0.40937686 -0.33100241 0.77525204 7.078187e-39
0.39585668 -0.29298332 0.77746409 6.7979945e-39
0.42014888 -0.27716357 0.77570742 7.4487701e-39
0.632465 -0.26801914 0.75775719 4.2432957e-39
0.65788502 -0.2768358 0.75685793 4.3354885e-39
0.58838314 -0.21557802 0.7573061 3.9667018e-39
0.61969954 -0.22944561 0.7569958 4.797208e-39
0.65331757 -0.24518816 0.75290793 4.8894036e-39
0.54798281 -0.16198583 0.75283289 3.3209512e-39
0.57212335 -0.17453317 0.75805414 8.5735462e-39
0.60787529 -0.18994305 0.75442928 5.0734417e-39
0.56390774 -0.14753546 0.75430655 5.4414521e-39
0.44979775 0.042883195 0.76800662 6.3632711e-39
0.45660472 0.047898423 0.77599227 6.4536941e-39
0.47012949 0.069655895 0.77551287 8.3029162e-39
0.50690788 0.095467702 0.77566475 9.2237669e-39
0.52916712 0.10896197 0.77404404 9.1322775e-39
0.44776133 -0.40352708 0.81876695 6.2448278e-39
0.46451238 -0.41037387 0.83624727 8.725112e-39
0.43590438 -0.37072772 0.83193046 8.5468374e-39
0.47099054 -0.37643096 0.84478503 1.2134187e-38
0.50176239 -0.38715518 0.8430264 1.0928449e-38
0.3971571 -0.30590498 0.81944972 6.708666e-39
0.42362273 -0.32444093 0.83692694 1.0941762e-38
0.46109727 -0.33178875 0.84305602 1.0838049e-38
0.39635107 -0.29406455 0.8199538 6.6143221e-39
0.42124122 -0.28254479 0.82925284 8.452481e-39
0.45240927 -0.29818916 0.83908576 1.0286317e-38
0.45769024 0.04874824 0.8066138 1.1340062e-38
0.47690839 0.068564177 0.80959523 1.1617965e-38
0.51454389 0.090786725 0.80994374 1.0054989e-38
0.53497428 0.10689021 0.80831617 7.5614303e-39
0.55152065 0.11111093 0.80871052 5.7971171e-39
