# .PCD v0.7 - Point Cloud Data file format
VERSION 0.7
FIELDS x y z rgb
SIZE 4 4 4 4
TYPE F F F F
COUNT 1 1 1 1
WIDTH 1025
HEIGHT 1
VIEWPOINT 0 0 0 1 0 0 0
POINTS 1025
DATA ascii
0.8278383 0.92436314 8.7698027e-06 4.978564e-39
0.87436664 0.92490387 4.6414275e-06 4.978564e-39
0.92358714 0.92537129 4.756391e-05 4.978564e-39
0.97443259 0.92511863 3.5289906e-06 4.978564e-39
1.0253237 0.92484522 3.1653203e-06 4.978564e-39
1.074764 0.92468601 3.1245381e-06 4.978564e-39
1.1245128 0.92510337 3.6028982e-06 4.978564e-39
1.1760525 0.92509013 2.1995082e-05 4.978564e-39
1.225805 0.92521518 3.2186508e-06 4.978564e-39
1.2749239 0.92488819 3.2230935e-06 4.978564e-39
1.3238319 0.92449749 2.7950971e-05 4.978564e-39
1.3750278 0.92486846 3.0780084e-05 4.978564e-39
1.4251482 0.92543876 3.4504988e-06 4.978564e-39
1.4747669 0.9251762 4.393467e-06 4.978564e-39
1.5264409 0.92499071 4.0068112e-06 4.978564e-39
1.5739799 0.92501467 3.3219656e-06 4.978564e-39
1.6235867 0.92467028 4.0928521e-06 4.978564e-39
1.6748397 0.92482728 3.8349626e-06 4.978564e-39
1.7244539 0.92458934 1.670778e-05 4.978564e-39
1.7759347 0.92547554 4.183054e-06 4.978564e-39
1.8258704 0.925493 4.2711348e-05 4.978564e-39
1.8741125 0.92509854 4.0020263e-06 4.978564e-39
1.9235766 0.92507225 3.857785e-06 4.978564e-39
1.9748001 0.92458391 6.9883332e-05 4.978564e-39
2.0238545 0.9244507 3.999558e-06 4.978564e-39
2.0746675 0.92505795 3.0444879e-05 4.978564e-39
2.1269264 0.92421895 4.760378e-06 4.978564e-39
2.1762044 0.92447704 3.7681311e-06 4.978564e-39
2.2206824 0.9251368 4.8774355e-06 4.978564e-39
2.2933352 0.94959998 5.0067902e-06 4.978564e-39
2.3900404 0.90166771 3.0398369e-06 4.978564e-39
2.4223518 0.91946983 0.00014868453 4.978564e-39
2.4821556 0.94128978 3.4570694e-06 4.978564e-39
2.5287993 0.92545205 0.00025170474 4.978564e-39
3.5407667 0.92928696 0.0013779172 4.978564e-39
0.82788372 0.97485375 3.7087334e-06 4.978564e-39
0.87399554 0.97487032 4.5789056e-06 4.978564e-39
0.92415357 0.97527993 4.7010988e-05 4.978564e-39
0.97448957 0.97487777 2.7357501e-05 4.978564e-39
1.0256075 0.97495705 3.1510474e-06 4.978564e-39
1.0749588 0.974585 9.9659464e-06 4.978564e-39
1.124393 0.97530943 4.5743836e-06 4.978564e-39
1.1761206 0.97500741 3.4081688e-05 4.978564e-39
1.2257868 0.97512245 2.2209821e-05 4.978564e-39
1.2750401 0.97496021 3.2404573e-06 4.978564e-39
1.3243653 0.97474474 2.7013473e-05 4.978564e-39
1.3748014 0.97502244 3.6506897e-06 4.978564e-39
1.4248816 0.9753176 6.0130792e-06 4.978564e-39
1.4748602 0.97507221 4.4522462e-06 4.978564e-39
1.526443 0.97526145 3.9739689e-06 4.978564e-39
1.5740333 0.97473067 3.2799585e-06 4.978564e-39
1.6235856 0.97476059 4.0928521e-06 4.978564e-39
1.6747164 0.97482526 3.8353296e-06 4.978564e-39
1.7240635 0.97474134 3.5385094e-06 4.978564e-39
1.7760664 0.97515988 4.1586659e-06 4.978564e-39
1.8260437 0.97537202 1.650249e-05 4.978564e-39
1.8741121 0.9753381 4.0020263e-06 4.978564e-39
1.9231975 0.9746837 1.3334719e-05 4.978564e-39
1.9749788 0.97474277 4.1296453e-06 4.978564e-39
2.0241888 0.97489065 3.9477281e-06 4.978564e-39
2.0746095 0.97504109 4.6432019e-06 4.978564e-39
2.1264327 0.97445351 3.9944007e-06 4.978564e-39
2.1763339 0.97420049 3.7550926e-06 4.978564e-39
2.2205722 0.97682989 4.8822826e-06 4.978564e-39
2.2766664 0.96292132 5.0961971e-06 4.978564e-39
2.338748 0.95902634 4.6789646e-06 4.978564e-39
2.3758988 0.97108936 4.0531158e-06 4.978564e-39
2.4026899 0.9685353 0.0021988037 4.978564e-39
2.4840543 0.97933894 0.0011088615 4.978564e-39
2.5223446 0.98395717 4.1723251e-06 4.978564e-39
2.5759172 0.95605195 0.00097077811 4.978564e-39
2.6278648 0.98574716 3.9619863e-05 4.978564e-39
2.8416326 0.99923742 4.8875809e-06 4.978564e-39
2.9772689 0.95795143 4.8875809e-06 4.978564e-39
3.7088845 0.9600479 5.8412552e-06 4.978564e-39
0.82755083 1.0245609 4.2936349e-06 4.978564e-39
0.87427944 1.0249368 4.1256385e-06 4.978564e-39
0.92326248 1.0251682 1.4883292e-05 4.978564e-39
0.97460169 1.0247998 3.7591681e-06 4.978564e-39
1.025324 1.0250928 1.2204821e-05 4.978564e-39
1.0749496 1.0249445 1.6652348e-05 4.978564e-39
1.1243345 1.0250539 3.3777924e-06 4.978564e-39
1.1762582 1.024979 3.3758282e-05 4.978564e-39
1.2258041 1.0249207 3.103054e-06 4.978564e-39
1.2751526 1.0251781 3.239255e-06 4.978564e-39
1.3239027 1.02468 3.9235896e-05 4.978564e-39
1.3746145 1.0251473 9.6323556e-06 4.978564e-39
1.4251792 1.0248164 2.4773924e-05 4.978564e-39
1.4747213 1.0250447 2.1694501e-05 4.978564e-39
1.5263027 1.0253266 3.916025e-06 4.978564e-39
1.5745472 1.0248302 1.7951888e-05 4.978564e-39
1.6234411 1.0247561 2.4493944e-05 4.978564e-39
1.6746734 1.0252147 6.1132538e-05 4.978564e-39
1.7246878 1.0250181 1.6193337e-05 4.978564e-39
1.7759396 1.0248948 3.5435431e-05 4.978564e-39
1.8261462 1.0250069 5.8469235e-05 4.978564e-39
1.8738657 1.0253876 3.1335585e-05 4.978564e-39
1.9238272 1.0246775 4.6792229e-05 4.978564e-39
1.9747028 1.0247467 4.1443623e-06 4.978564e-39
2.0239589 1.0255362 4.9849692e-05 4.978564e-39
2.0748727 1.0250064 3.0715564e-05 4.978564e-39
2.1266737 1.0249455 3.9054385e-06 4.978564e-39
2.1765807 1.0249202 2.6547454e-05 4.978564e-39
2.2214563 1.0257818 7.3766358e-05 4.978564e-39
2.3190238 1.0215021 0.00035296674 4.978564e-39
2.3634317 1.0323617 4.4107437e-06 4.978564e-39
2.4322002 1.0226499 0.0010531613 4.978564e-39
2.5657859 1.0086246 0.00080184464 4.978564e-39
2.6920924 1.0059049 7.2717667e-06 4.978564e-39
2.7143893 1.022052 5.6028366e-06 4.978564e-39
2.9645636 1.0115352 7.5101852e-06 4.978564e-39
0.82793409 1.0754551 3.9408028e-06 4.978564e-39
0.87424135 1.0750901 1.5177214e-05 4.978564e-39
0.924577 1.0749648 2.8591792e-05 4.978564e-39
0.9745574 1.0749722 4.0334162e-06 4.978564e-39
1.0255358 1.0750754 3.4316483e-05 4.978564e-39
1.0749948 1.074909 4.826577e-06 4.978564e-39
1.1244544 1.0750893 3.2674975e-06 4.978564e-39
1.1760824 1.0750936 3.6033425e-06 4.978564e-39
1.2257299 1.0751764 1.9452229e-05 4.978564e-39
1.2751023 1.0749706 1.2652664e-05 4.978564e-39
1.3244126 1.0748075 2.919377e-06 4.978564e-39
1.3749892 1.0750834 3.6389399e-06 4.978564e-39
1.4253083 1.0751835 3.2952853e-06 4.978564e-39
1.474802 1.0750418 4.4151266e-06 4.978564e-39
1.5261266 1.0751076 5.5343844e-06 4.978564e-39
1.5739799 1.0750891 3.2742819e-06 4.978564e-39
1.6233811 1.0747252 4.0890841e-06 4.978564e-39
1.6747179 1.0748105 3.6580889e-06 4.978564e-39
1.7245014 1.074924 3.5702581e-06 4.978564e-39
1.7756499 1.0751209 5.4965214e-05 4.978564e-39
1.8258345 1.0747119 3.4051784e-06 4.978564e-39
1.8741139 1.0749174 4.008592e-06 4.978564e-39
1.9235734 1.0748323 3.8568564e-06 4.978564e-39
1.9750696 1.0747373 4.120815e-06 4.978564e-39
2.0241079 1.0748997 6.5830835e-05 4.978564e-39
2.0744891 1.0744005 4.2725274e-05 4.978564e-39
2.1267352 1.075076 3.7749608e-06 4.978564e-39
2.1760104 1.0747752 3.7688476e-06 4.978564e-39
2.2196388 1.0742533 3.7418878e-05 4.978564e-39
2.2793114 1.0654634 0.0001279912 4.978564e-39
2.322329 1.0676863 0.00018856928 4.978564e-39
2.442806 1.0799627 4.7683716e-06 4.978564e-39
2.4717681 1.0665822 0.00075791241 4.978564e-39
2.5021422 1.076777 4.4107437e-06 4.978564e-39
2.660424 1.0637822 0.00068810768 4.978564e-39
3.0816681 1.0881481 6.1988831e-06 4.978564e-39
3.365828 1.0742172 0.00022872235 4.978564e-39
0.82816273 1.1251104 4.0855934e-06 4.978564e-39
0.87426108 1.1254539 2.9630719e-05 4.978564e-39
0.92493391 1.1254441 3.0374824e-05 4.978564e-39
0.97441858 1.1249309 4.3079772e-06 4.978564e-39
1.0254827 1.1251075 1.5943229e-05 4.978564e-39
1.0749102 1.1252496 3.3386703e-05 4.978564e-39
1.1244032 1.1251799 2.2565684e-05 4.978564e-39
1.1759887 1.1250976 5.7751437e-05 4.978564e-39
1.2256128 1.1251401 3.5776447e-05 4.978564e-39
1.2749276 1.1251179 3.7562255e-05 4.978564e-39
1.3259501 1.1250861 2.9476359e-06 4.978564e-39
1.3747158 1.1249877 2.9581628e-05 4.978564e-39
1.4252678 1.1250345 3.2984442e-06 4.978564e-39
1.4752337 1.1250813 4.0142182e-05 4.978564e-39
1.526644 1.1249397 4.4179335e-05 4.978564e-39
1.5741446 1.1250125 2.6406919e-05 4.978564e-39
1.623436 1.1248137 4.0844334e-06 4.978564e-39
1.6747901 1.1251956 4.3337295e-05 4.978564e-39
1.7245646 1.1247659 3.5444109e-06 4.978564e-39
1.7758423 1.1249285 2.9025452e-05 4.978564e-39
1.8259941 1.1247687 3.3897511e-06 4.978564e-39
1.8741128 1.1248585 4.0020263e-06 4.978564e-39
1.9236614 1.1246458 3.8510416e-06 4.978564e-39
1.9747941 1.124735 4.1767403e-06 4.978564e-39
2.0238402 1.1248987 5.4036791e-05 4.978564e-39
2.0745318 1.1243083 6.2931882e-05 4.978564e-39
2.1269171 1.1252041 3.7897878e-06 4.978564e-39
2.1763339 1.1248677 4.1434259e-06 4.978564e-39
2.2220693 1.1259792 4.9563555e-06 4.978564e-39
2.3113611 1.1164298 2.9802322e-06 4.978564e-39
2.3900409 1.1331499 2.9802322e-06 4.978564e-39
2.4434216 1.1439782 4.0839145e-06 4.978564e-39
2.5302103 1.1330178 0.00067844579 4.978564e-39
2.7235177 1.1367346 0.00040882087 4.978564e-39
2.8536062 1.1173869 4.0531158e-06 4.978564e-39
0.82826293 1.1749842 1.0506586e-05 4.978564e-39
0.8742305 1.1749455 4.0186674e-06 4.978564e-39
0.92404437 1.1749554 3.5711962e-06 4.978564e-39
0.97470373 1.1749544 6.5371511e-05 4.978564e-39
1.0254681 1.1750674 3.9485462e-06 4.978564e-39
1.0748566 1.1751449 4.4201056e-06 4.978564e-39
1.124455 1.1750381 3.5774474e-06 4.978564e-39
1.1761496 1.1749879 3.8857015e-06 4.978564e-39
1.2257458 1.1749405 1.7295744e-05 4.978564e-39
1.2750386 1.1749167 3.248821e-06 4.978564e-39
1.3246127 1.1755843 4.8161055e-05 4.978564e-39
1.3749781 1.1747941 2.3304907e-05 4.978564e-39
1.4254504 1.1749588 2.1693282e-05 4.978564e-39
1.4748422 1.1750349 1.9641811e-05 4.978564e-39
1.5260899 1.1751786 2.2682192e-05 4.978564e-39
1.574128 1.1751103 4.9918799e-05 4.978564e-39
1.6234845 1.1749017 4.0541436e-06 4.978564e-39
1.6745051 1.1750453 3.6612596e-06 4.978564e-39
1.7242806 1.1748599 3.5440921e-06 4.978564e-39
1.7756004 1.1751223 3.1860603e-05 4.978564e-39
1.8256869 1.1753458 2.9325802e-05 4.978564e-39
1.8741118 1.1750979 3.9963497e-06 4.978564e-39
1.9237673 1.1744726 4.484754e-05 4.978564e-39
1.9749128 1.1749302 0.00010094157 4.978564e-39
2.0241809 1.1753424 8.7859753e-06 4.978564e-39
2.0747082 1.1748135 4.7877429e-06 4.978564e-39
2.1269593 1.1757631 5.5327171e-05 4.978564e-39
2.1762702 1.1749597 4.1429812e-06 4.978564e-39
2.223067 1.1754826 4.9560158e-06 4.978564e-39
2.3122735 1.1677033 0.00020501453 4.978564e-39
2.3893654 1.1632355 2.9121127e-06 4.978564e-39
2.4428058 1.1911972 4.7683716e-06 4.978564e-39
2.5205419 1.1812105 0.00084192172 4.978564e-39
2.621438 1.1731063 0.0028462105 4.978564e-39
2.8297083 1.1745416 0.0010333158 4.978564e-39
2.8808744 1.1689929 0.001243582 4.978564e-39
0.82826138 1.2249783 4.2339111e-06 4.978564e-39
0.87406486 1.2248782 1.1738852e-05 4.978564e-39
0.92369264 1.2247477 9.8426135e-06 4.978564e-39
0.9747293 1.2251861 5.4223565e-05 4.978564e-39
1.025371 1.224848 3.5292223e-06 4.978564e-39
1.0749668 1.224883 4.1117575e-05 4.978564e-39
1.124318 1.2248501 4.6869132e-05 4.978564e-39
1.17592 1.2250541 2.0679092e-05 4.978564e-39
1.2258036 1.2249278 3.5965081e-06 4.978564e-39
1.2749444 1.2249023 4.7030962e-06 4.978564e-39
1.3242432 1.2249604 2.9572125e-06 4.978564e-39
1.3747497 1.2248216 3.7040409e-05 4.978564e-39
1.4253075 1.2251281 3.5762787e-06 4.978564e-39
1.4748576 1.2249494 1.0919596e-05 4.978564e-39
1.5264419 1.2247471 3.7531058e-06 4.978564e-39
1.5740433 1.2250092 4.7198711e-05 4.978564e-39
1.623587 1.2247766 4.0541349e-06 4.978564e-39
1.6749247 1.2250401 3.8181693e-06 4.978564e-39
1.7246275 1.2249504 3.5503124e-06 4.978564e-39
1.7760651 1.2246032 4.2513925e-06 4.978564e-39
1.8259141 1.2254717 3.747379e-06 4.978564e-39
1.8736519 1.2255055 8.4882129e-05 4.978564e-39
1.9236614 1.2248906 4.0051414e-06 4.978564e-39
1.9749767 1.2253493 4.4902167e-06 4.978564e-39
2.0235567 1.2254828 5.8429574e-05 4.978564e-39
2.0741544 1.2249163 6.9436435e-05 4.978564e-39
2.1267347 1.22509 3.7749608e-06 4.978564e-39
2.1759813 1.2247068 3.9572868e-05 4.978564e-39
2.2231734 1.22566 4.026643e-05 4.978564e-39
2.2751203 1.2361339 0.00029554396 4.978564e-39
2.305336 1.2209344 4.3312707e-06 4.978564e-39
2.4235411 1.2146146 4.3511391e-06 4.978564e-39
2.4525619 1.2165737 6.5565109e-06 4.978564e-39
2.5156286 1.2192208 4.3312707e-06 4.978564e-39
2.5854573 1.2354413 0.00025547168 4.978564e-39
2.6273949 1.2139436 6.5207467e-05 4.978564e-39
2.7482572 1.222087 0.00030632358 4.978564e-39
2.7516668 1.2308365 0.0018492099 4.978564e-39
2.8136086 1.2357349 0.00025627107 4.978564e-39
2.9200678 1.2335888 0.00026170968 4.978564e-39
0.8282311 1.2750055 5.9136751e-06 4.978564e-39
0.87430084 1.2748442 3.2035543e-05 4.978564e-39
0.9236849 1.2753251 5.0023991e-05 4.978564e-39
0.97453445 1.2752274 1.1364373e-05 4.978564e-39
1.0255921 1.2747412 3.3175581e-06 4.978564e-39
1.0750053 1.2751077 2.1285648e-05 4.978564e-39
1.1243355 1.2748653 4.1074613e-06 4.978564e-39
1.176322 1.275017 4.0531158e-06 4.978564e-39
1.2257229 1.2750796 4.143058e-06 4.978564e-39
1.2753252 1.2748533 3.5230469e-06 4.978564e-39
1.3239501 1.2750407 2.9013074e-06 4.978564e-39
1.3748971 1.2750416 3.9080905e-06 4.978564e-39
1.4251002 1.2749727 3.4753352e-06 4.978564e-39
1.4748185 1.2751132 2.0870246e-05 4.978564e-39
1.5263332 1.2746688 4.7478585e-05 4.978564e-39
1.5741686 1.2751008 3.516674e-06 4.978564e-39
1.6235868 1.2748668 4.2253068e-06 4.978564e-39
1.6745963 1.2752758 3.998186e-06 4.978564e-39
1.7243441 1.2750415 3.5417079e-06 4.978564e-39
1.7760785 1.2743605 4.4458528e-05 4.978564e-39
1.8259947 1.2752397 3.7636075e-06 4.978564e-39
1.8741128 1.2749752 3.9849961e-06 4.978564e-39
1.9234226 1.2750136 7.8539888e-05 4.978564e-39
1.9748249 1.275268 4.233481e-05 4.978564e-39
2.0242479 1.2749742 3.9163756e-06 4.978564e-39
2.0747097 1.2750109 4.7593176e-06 4.978564e-39
2.1265533 1.2752129 3.7702162e-06 4.978564e-39
2.1761398 1.2751608 4.1264752e-06 4.978564e-39
2.2247391 1.2744482 5.0046988e-06 4.978564e-39
2.2696149 1.2576146 5.0200356e-06 4.978564e-39
2.3098707 1.2646337 8.969356e-05 4.978564e-39
2.4453201 1.294966 0.0008395238 4.978564e-39
2.4618857 1.2795345 5.4746102e-05 4.978564e-39
2.5376432 1.256544 5.364418e-06 4.978564e-39
2.5696969 1.2688723 0.00018878377 4.978564e-39
2.6047726 1.2548292 0.000446836 4.978564e-39
2.8188646 1.2774762 0.00068982597 4.978564e-39
2.9145191 1.2505715 6.7949295e-06 4.978564e-39
3.1356266 1.2978514 0.00021709997 4.978564e-39
3.5893066 1.2933775 6.7949295e-06 4.978564e-39
0.82817125 1.3249673 3.4195493e-06 4.978564e-39
0.87423456 1.3251137 2.5179266e-05 4.978564e-39
0.92408067 1.3249935 2.4700885e-05 4.978564e-39
0.97451872 1.3250874 2.7888834e-06 4.978564e-39
1.0254955 1.3249307 3.1749234e-06 4.978564e-39
1.0748358 1.3250293 4.472533e-06 4.978564e-39
1.1245413 1.3248743 3.9118138e-05 4.978564e-39
1.176105 1.3251015 4.3334189e-06 4.978564e-39
1.2257236 1.3250842 3.8655794e-06 4.978564e-39
1.2750137 1.3249154 4.2789408e-05 4.978564e-39
1.3238504 1.3251325 3.621496e-06 4.978564e-39
1.3749924 1.3251466 3.9186234e-06 4.978564e-39
1.4251456 1.3246926 2.3605244e-05 4.978564e-39
1.4749968 1.3249658 1.0547471e-05 4.978564e-39
1.5264271 1.3250296 3.1250282e-05 4.978564e-39
1.5743902 1.3249744 8.2421348e-06 4.978564e-39
1.6234293 1.3249136 1.6454445e-05 4.978564e-39
1.674587 1.3249899 3.1584088e-05 4.978564e-39
1.7245027 1.3251365 3.5396897e-06 4.978564e-39
1.7760123 1.3247805 5.0129242e-05 4.978564e-39
1.8258355 1.3250062 3.7585987e-06 4.978564e-39
1.8738992 1.3249962 6.7908171e-05 4.978564e-39
1.9240129 1.3251226 4.01241e-06 4.978564e-39
1.9751916 1.3245307 1.4218109e-05 4.978564e-39
2.0237448 1.3250518 3.8872595e-06 4.978564e-39
2.0744081 1.324959 4.6323507e-06 4.978564e-39
2.1267352 1.3253461 3.7749608e-06 4.978564e-39
2.176528 1.3248653 4.1136373e-06 4.978564e-39
2.2231479 1.3247316 1.0071002e-05 4.978564e-39
2.33125 1.3276469 5.6737299e-05 4.978564e-39
2.3595488 1.3365508 5.6922436e-06 4.978564e-39
2.4436312 1.3151813 0.00034450617 4.978564e-39
2.4739783 1.3189796 4.5895576e-06 4.978564e-39
2.5269179 1.3211715 0.00070392474 4.978564e-39
2.6266887 1.3061686 4.529953e-06 4.978564e-39
2.7134094 1.3466187 0.00048555163 4.978564e-39
2.817894 1.3147393 6.3180923e-06 4.978564e-39
2.8656449 1.3298382 5.364418e-06 4.978564e-39
3.192358 1.3230101 0.00068219448 4.978564e-39
0.82757306 1.3744941 3.4390378e-06 4.978564e-39
0.8741399 1.3750552 9.1493002e-06 4.978564e-39
0.9241128 1.3750788 1.85114e-05 4.978564e-39
0.97442001 1.3749368 3.2354624e-06 4.978564e-39
1.0263629 1.374552 3.3971951e-06 4.978564e-39
1.0748782 1.3748316 4.0088025e-06 4.978564e-39
1.1244943 1.3750602 3.9123906e-06 4.978564e-39
1.1766111 1.3748717 4.9275386e-05 4.978564e-39
1.2256981 1.3749359 3.7385757e-06 4.978564e-39
1.2750967 1.3750263 4.1723251e-06 4.978564e-39
1.3242272 1.3750464 4.6077703e-06 4.978564e-39
1.3748367 1.3750628 1.3388527e-05 4.978564e-39
1.4252266 1.3748707 3.4055711e-06 4.978564e-39
1.4747472 1.3749434 4.368977e-06 4.978564e-39
1.5262048 1.374956 8.3689811e-06 4.978564e-39
1.5740337 1.3747538 3.5751434e-06 4.978564e-39
1.6232337 1.3750439 4.2436468e-06 4.978564e-39
1.6746272 1.3750199 3.9732572e-06 4.978564e-39
1.7245648 1.3749732 3.5534001e-06 4.978564e-39
1.7758995 1.3749321 4.1217513e-06 4.978564e-39
1.8260747 1.3750632 3.768416e-06 4.978564e-39
1.8740288 1.3751544 3.9683769e-06 4.978564e-39
1.9238374 1.3749465 3.981881e-06 4.978564e-39
1.9748846 1.3747282 4.4740277e-06 4.978564e-39
2.0240197 1.3751241 3.9005981e-06 4.978564e-39
2.0744114 1.3748965 4.6491623e-06 4.978564e-39
2.1264415 1.3751411 5.6558794e-05 4.978564e-39
2.1760094 1.3745785 4.1338112e-06 4.978564e-39
2.2237778 1.3751267 1.3967539e-05 4.978564e-39
2.257827 1.3631312 6.0796738e-06 4.978564e-39
2.3249946 1.368708 0.00014497398 4.978564e-39
2.355545 1.3652 0.00046094839 4.978564e-39
2.4428058 1.3568127 4.7683716e-06 4.978564e-39
2.4720294 1.3721987 1.8648121e-05 4.978564e-39
2.5292213 1.3549751 5.364418e-06 4.978564e-39
2.573808 1.3501619 4.6491623e-06 4.978564e-39
2.6241462 1.363447 0.00033749139 4.978564e-39
2.7324016 1.3625093 0.00078890752 4.978564e-39
0.82819587 1.4237822 1.4150097e-05 4.978564e-39
0.87434113 1.4250153 2.4211615e-05 4.978564e-39
0.92393935 1.4248868 1.316699e-05 4.978564e-39
0.97458035 1.4250035 3.7482444e-06 4.978564e-39
1.0253435 1.4252111 3.1986739e-05 4.978564e-39
1.0749491 1.424822 3.7879993e-06 4.978564e-39
1.1244321 1.4250953 3.9902816e-06 4.978564e-39
1.175945 1.4248782 1.4143643e-05 4.978564e-39
1.2258238 1.4248511 2.4991581e-05 4.978564e-39
1.2752491 1.4250792 5.656877e-06 4.978564e-39
1.3239766 1.4250826 8.40964e-06 4.978564e-39
1.3748955 1.4248853 4.0223522e-06 4.978564e-39
1.4252143 1.4249115 3.2561838e-05 4.978564e-39
1.4751705 1.4252012 7.8599347e-05 4.978564e-39
1.5261667 1.4250034 3.5862129e-06 4.978564e-39
1.5738409 1.424911 1.4041994e-05 4.978564e-39
1.6235799 1.4251546 8.7513545e-06 4.978564e-39
1.6746567 1.4252599 3.9561123e-06 4.978564e-39
1.7242513 1.4248217 3.5385094e-06 4.978564e-39
1.7758646 1.4248697 4.1017729e-06 4.978564e-39
1.8257557 1.4251177 3.7670136e-06 4.978564e-39
1.8741125 1.4250942 3.9849961e-06 4.978564e-39
1.9235748 1.4250644 3.9181077e-06 4.978564e-39
1.9748914 1.4246134 2.5235264e-05 4.978564e-39
2.0241354 1.4248401 3.8602775e-06 4.978564e-39
2.0743029 1.4250461 2.2843346e-05 4.978564e-39
2.1263402 1.4252481 8.5141066e-05 4.978564e-39
2.1763334 1.4246758 4.1127205e-06 4.978564e-39
2.2229159 1.4257623 9.2408314e-05 4.978564e-39
2.2754967 1.4430242 2.7418137e-06 4.978564e-39
2.3151205 1.4380578 0.00012000343 4.978564e-39
2.3947694 1.4347023 3.4570694e-06 4.978564e-39
2.4042766 1.4359202 3.9339066e-06 4.978564e-39
2.5842991 1.4153582 3.8146973e-06 4.978564e-39
2.7944324 1.4426184 5.6028366e-06 4.978564e-39
2.9750304 1.4014995 0.0014919674 4.978564e-39
0.84148103 1.4560457 3.3825636e-06 4.978564e-39
0.8780753 1.4683877 1.21089e-05 4.978564e-39
0.92405272 1.4747441 2.6326938e-05 4.978564e-39
0.97443545 1.4750689 3.7902441e-06 4.978564e-39
1.0253561 1.4751294 2.1687696e-05 4.978564e-39
1.0748079 1.4750427 3.8816756e-06 4.978564e-39
1.1244255 1.4749196 2.4310322e-05 4.978564e-39
1.1761435 1.4748094 2.1812622e-05 4.978564e-39
1.2256448 1.4750893 4.2829683e-06 4.978564e-39
1.2749996 1.474889 3.792144e-05 4.978564e-39
1.3239444 1.475049 4.2781962e-06 4.978564e-39
1.3748755 1.4749647 3.2220592e-05 4.978564e-39
1.4252865 1.4749175 1.0778414e-05 4.978564e-39
1.4748832 1.4752586 3.8243641e-05 4.978564e-39
1.5267165 1.4748528 3.5861308e-06 4.978564e-39
1.5743312 1.47488 3.5346679e-06 4.978564e-39
1.623383 1.4750073 3.920547e-06 4.978564e-39
1.6745367 1.4752501 3.9748115e-06 4.978564e-39
1.7246618 1.4749112 3.5560131e-06 4.978564e-39
1.7757303 1.4747072 2.7949778e-05 4.978564e-39
1.8261769 1.4751366 1.7073569e-05 4.978564e-39
1.873678 1.4748985 6.5517946e-05 4.978564e-39
1.9235727 1.4751801 3.8088822e-06 4.978564e-39
1.9749771 1.4747312 4.466669e-06 4.978564e-39
2.0236347 1.4746104 6.5147819e-05 4.978564e-39
2.0748103 1.4747906 4.6084197e-06 4.978564e-39
2.1268094 1.4751745 6.5558881e-05 4.978564e-39
2.1763506 1.4749286 5.1507857e-05 4.978564e-39
2.2230649 1.4754831 4.9505593e-06 4.978564e-39
2.2717004 1.4687788 3.7636075e-06 4.978564e-39
2.3023236 1.4728006 5.0067902e-06 4.978564e-39
2.4420285 1.4850336 0.00069194083 4.978564e-39
2.5842688 1.4641156 5.0067902e-06 4.978564e-39
2.605041 1.4736708 0.0012582144 4.978564e-39
2.6700497 1.4621053 5.9604645e-06 4.978564e-39
2.7763844 1.4706103 0.00018297804 4.978564e-39
2.8061321 1.4792721 4.7683716e-06 4.978564e-39
2.8659167 1.4512854 0.00060038595 4.978564e-39
0.93236673 1.5116674 4.0454247e-06 4.978564e-39
0.97577912 1.5237542 3.878095e-06 4.978564e-39
1.0255738 1.5247221 4.0301264e-05 4.978564e-39
1.074899 1.525331 2.1337035e-05 4.978564e-39
1.1241601 1.5245156 3.9172296e-06 4.978564e-39
1.17519 1.5244145 3.7803488e-06 4.978564e-39
1.2258391 1.5252993 6.3662985e-05 4.978564e-39
1.2752351 1.5247694 4.2582331e-05 4.978564e-39
1.324296 1.5249346 3.0575378e-05 4.978564e-39
1.3749592 1.5251014 3.9523648e-06 4.978564e-39
1.4251417 1.5248119 3.9663314e-06 4.978564e-39
1.4746356 1.5248535 3.5058914e-05 4.978564e-39
1.5261703 1.5251215 3.6925567e-06 4.978564e-39
1.5740576 1.524972 1.3209848e-05 4.978564e-39
1.6237508 1.5248522 1.2415074e-05 4.978564e-39
1.6745965 1.5252508 3.9409188e-06 4.978564e-39
1.7244068 1.5247496 3.5345554e-06 4.978564e-39
1.7759283 1.5251273 5.3020416e-05 4.978564e-39
1.8259947 1.524945 3.7636075e-06 4.978564e-39
1.8739057 1.5250156 1.0937833e-05 4.978564e-39
1.9235687 1.5251201 4.0892413e-05 4.978564e-39
1.9749776 1.5247151 4.4902167e-06 4.978564e-39
2.0237951 1.5249902 3.9619558e-06 4.978564e-39
2.0741105 1.5250441 4.5752222e-06 4.978564e-39
2.1267357 1.525106 3.7749608e-06 4.978564e-39
2.1763337 1.5248694 4.2752786e-06 4.978564e-39
2.2232263 1.5252519 4.9736764e-06 4.978564e-39
2.2843215 1.5307778 0.00019043931 4.978564e-39
2.3139668 1.5226773 0.00035854336 4.978564e-39
2.3853321 1.5307863 4.8875809e-06 4.978564e-39
2.4331465 1.5259969 0.00082329515 4.978564e-39
2.4574683 1.5457206 6.0200691e-06 4.978564e-39
2.5284965 1.5237135 4.7445296e-06 4.978564e-39
2.5947862 1.5426683 5.1259995e-06 4.978564e-39
3.5073528 1.5422809 6.4373016e-06 4.978564e-39
0.99022216 1.5566168 3.7336349e-06 4.978564e-39
1.0294813 1.5697263 3.1897303e-06 4.978564e-39
1.0748764 1.575098 3.4920208e-06 4.978564e-39
1.124332 1.5755057 3.6985136e-06 4.978564e-39
1.1759976 1.5754621 3.8114222e-06 4.978564e-39
1.225724 1.5747738 5.7631212e-05 4.978564e-39
1.275063 1.5748136 1.7506902e-05 4.978564e-39
1.3238821 1.5752192 4.2183647e-06 4.978564e-39
1.3752606 1.575248 4.5197412e-05 4.978564e-39
1.4253062 1.574858 3.8979547e-06 4.978564e-39
1.4750564 1.5748795 4.4699132e-06 4.978564e-39
1.52651 1.5750035 5.4793883e-05 4.978564e-39
1.5737897 1.5748879 3.3427918e-05 4.978564e-39
1.6235865 1.5749712 3.8941703e-06 4.978564e-39
1.6747761 1.575242 3.9374127e-06 4.978564e-39
1.7242724 1.5748495 1.3705627e-05 4.978564e-39
1.7760986 1.5751958 3.8921216e-06 4.978564e-39
1.8261071 1.5744854 6.5943364e-06 4.978564e-39
1.8738594 1.5749094 3.969813e-06 4.978564e-39
1.9235761 1.5751238 4.0129007e-06 4.978564e-39
1.9746188 1.5749997 3.1728232e-05 4.978564e-39
2.0241883 1.5750597 4.3347263e-06 4.978564e-39
2.0748127 1.5749806 4.3817054e-06 4.978564e-39
2.1263406 1.5747085 3.9880932e-05 4.978564e-39
2.1762691 1.5749657 4.3062064e-06 4.978564e-39
2.222981 1.5748947 9.357775e-05 4.978564e-39
2.3377657 1.5736836 0.00031047573 4.978564e-39
2.3836472 1.5571727 0.00046876507 4.978564e-39
2.4267383 1.5800254 0.00080018182 4.978564e-39
2.4623747 1.5576689 5.4836273e-06 4.978564e-39
2.5325258 1.5991861 4.6491623e-06 4.978564e-39
2.5629508 1.5527924 0.00025439629 4.978564e-39
2.6370401 1.588344 0.00063367665 4.978564e-39
2.6700497 1.5749004 5.9604645e-06 4.978564e-39
2.7483046 1.5620431 5.6028366e-06 4.978564e-39
2.8416286 1.5850301 7.0333481e-06 4.978564e-39
2.8984814 1.567868 0.0031059431 4.978564e-39
2.9021947 1.5663862 5.6028366e-06 4.978564e-39
3.7088845 1.5699446 5.8412552e-06 4.978564e-39
1.0498999 1.602198 3.4570694e-06 4.978564e-39
1.0807564 1.6124486 3.4560009e-05 4.978564e-39
1.1253273 1.6239269 3.3576255e-06 4.978564e-39
1.1760458 1.6249994 3.5946083e-05 4.978564e-39
1.2256132 1.6247613 1.2947168e-05 4.978564e-39
1.2751248 1.6248969 4.0494592e-06 4.978564e-39
1.323933 1.6251135 3.7033042e-05 4.978564e-39
1.3747721 1.6253178 3.818494e-06 4.978564e-39
1.4253482 1.6249053 4.1656494e-06 4.978564e-39
1.4747279 1.6249677 1.0219688e-05 4.978564e-39
1.5263534 1.6248375 4.0198934e-06 4.978564e-39
1.5742508 1.6251818 4.0451687e-06 4.978564e-39
1.6235741 1.6251162 6.1421051e-05 4.978564e-39
1.6747456 1.6249841 3.9480701e-06 4.978564e-39
1.7245282 1.6247429 3.1332445e-05 4.978564e-39
1.775767 1.6248863 3.9616016e-06 4.978564e-39
1.8258358 1.6247686 3.8764056e-06 4.978564e-39
1.8741136 1.6248503 3.9339066e-06 4.978564e-39
1.9235171 1.6253337 8.2999704e-06 4.978564e-39
1.9747927 1.6253363 4.4696126e-06 4.978564e-39
2.0239952 1.6250995 7.2991672e-05 4.978564e-39
2.0747085 1.62493 4.3534023e-06 4.978564e-39
2.1267958 1.6249887 3.7577615e-06 4.978564e-39
2.1761398 1.6246759 4.3245464e-06 4.978564e-39
2.2253778 1.6252217 5.0107637e-06 4.978564e-39
2.3200917 1.622951 0.000498635 4.978564e-39
2.3947694 1.634774 3.4570694e-06 4.978564e-39
2.4042766 1.6144948 3.9339066e-06 4.978564e-39
2.5327878 1.6122259 0.00054268306 4.978564e-39
2.5773704 1.629666 4.8081079e-06 4.978564e-39
2.637439 1.6244843 4.8875809e-06 4.978564e-39
2.6788554 1.6335533 5.9127806e-06 4.978564e-39
2.7944324 1.6239163 5.6028366e-06 4.978564e-39
2.8298955 1.6181228 0.0009208268 4.978564e-39
1.1403865 1.6571858 6.3001426e-05 4.978564e-39
1.1795233 1.6705694 3.7588441e-06 4.978564e-39
1.225589 1.6747974 4.1036897e-06 4.978564e-39
1.2750114 1.6751198 4.0816385e-06 4.978564e-39
1.3239987 1.6748973 6.0954458e-06 4.978564e-39
1.3747896 1.6755505 0.00010646899 4.978564e-39
1.4253074 1.6749557 4.1165049e-06 4.978564e-39
1.4749031 1.6749045 2.1023408e-05 4.978564e-39
1.5265305 1.6751052 4.3614837e-06 4.978564e-39
1.5741069 1.6749332 2.2365542e-05 4.978564e-39
1.6235861 1.6751519 4.1611174e-06 4.978564e-39
1.6747177 1.6747396 4.2576416e-06 4.978564e-39
1.7245358 1.6747801 3.8886069e-06 4.978564e-39
1.7760687 1.6748203 3.9631009e-06 4.978564e-39
1.8257529 1.6750169 5.8983063e-05 4.978564e-39
1.8741115 1.6750898 3.9168767e-06 4.978564e-39
1.9237753 1.6752602 2.6643515e-05 4.978564e-39
1.9751657 1.6750282 4.4882299e-06 4.978564e-39
2.0235715 1.6748338 4.328349e-06 4.978564e-39
2.0743089 1.6751873 4.3760374e-06 4.978564e-39
2.1267357 1.6751183 3.7749608e-06 4.978564e-39
2.1760094 1.6743804 4.2897004e-06 4.978564e-39
2.2275128 1.6751165 1.5050819e-05 4.978564e-39
2.2815542 1.6834686 2.8946892e-05 4.978564e-39
2.3250022 1.6543357 3.7550926e-06 4.978564e-39
2.3853281 1.6753728 4.4107437e-06 4.978564e-39
2.4042766 1.6609731 3.9339066e-06 4.978564e-39
2.5641935 1.6715714 0.0003932261 4.978564e-39
2.6482489 1.675872 5.364418e-06 4.978564e-39
2.679939 1.6904453 0.00091983727 4.978564e-39
2.7143915 1.6905231 4.6491623e-06 4.978564e-39
2.8496251 1.6506205 0.00084875542 4.978564e-39
2.8795643 1.6956962 0.00025883518 4.978564e-39
2.9269218 1.6900973 5.6028366e-06 4.978564e-39
1.1981783 1.7020768 1.2318293e-06 4.978564e-39
1.2328684 1.7141157 1.1191193e-05 4.978564e-39
1.2756422 1.7244792 4.0447635e-06 4.978564e-39
1.3241099 1.7252518 2.5598711e-05 4.978564e-39
1.3748628 1.7251352 4.4899602e-06 4.978564e-39
1.425308 1.7250047 3.7670136e-06 4.978564e-39
1.4748055 1.7249228 3.2800085e-06 4.978564e-39
1.5260277 1.724956 4.3511391e-06 4.978564e-39
1.5742563 1.7251532 7.4289426e-05 4.978564e-39
1.6235859 1.7250279 4.2247361e-06 4.978564e-39
1.6742599 1.7244778 4.1782264e-06 4.978564e-39
1.7239333 1.7251604 4.752621e-05 4.978564e-39
1.7762039 1.7249763 6.4928965e-05 4.978564e-39
1.8259943 1.7245876 3.8828171e-06 4.978564e-39
1.8743211 1.7255987 5.6993293e-05 4.978564e-39
1.9236633 1.724877 3.8088822e-06 4.978564e-39
1.9745234 1.725011 4.4616258e-06 4.978564e-39
2.024296 1.7249031 6.4045249e-05 4.978564e-39
2.0743074 1.7251221 4.369479e-06 4.978564e-39
2.1266737 1.7252446 3.768437e-06 4.978564e-39
2.1763332 1.7244821 4.2517981e-06 4.978564e-39
2.2279375 1.7256669 5.0868839e-06 4.978564e-39
2.3126962 1.7128005 8.6269218e-05 4.978564e-39
2.4821517 1.7081946 5.6028366e-06 4.978564e-39
2.5021422 1.7196885 4.4107437e-06 4.978564e-39
2.5778861 1.7273502 0.00041888875 4.978564e-39
2.6106806 1.7220351 4.1723251e-06 4.978564e-39
2.7407475 1.7193025 5.2054725e-06 4.978564e-39
2.7683616 1.7117673 5.8114529e-06 4.978564e-39
2.9393947 1.7062637 6.0796738e-06 4.978564e-39
3.0816681 1.7052392 6.1988831e-06 4.978564e-39
3.5726917 1.7307186 6.5565109e-06 4.978564e-39
1.2888919 1.7581203 4.2404449e-06 4.978564e-39
1.3266795 1.7706617 3.9610945e-06 4.978564e-39
1.3745542 1.775319 4.2372112e-06 4.978564e-39
1.4252623 1.7749707 6.2895502e-05 4.978564e-39
1.4746503 1.7749885 3.4890313e-06 4.978564e-39
1.5269442 1.7750229 9.4935494e-06 4.978564e-39
1.5739793 1.7752435 4.2926699e-06 4.978564e-39
1.6235855 1.7749045 4.4565936e-06 4.978564e-39
1.6746169 1.7747105 2.0136722e-05 4.978564e-39
1.7249221 1.7749754 4.2915344e-06 4.978564e-39
1.7755408 1.7751915 4.0054319e-06 4.978564e-39
1.8258156 1.77422 5.8936603e-05 4.978564e-39
1.8740621 1.7757038 6.6414235e-05 4.978564e-39
1.923309 1.7746738 3.8161511e-06 4.978564e-39
1.9753011 1.7748082 1.7929635e-05 4.978564e-39
2.0235214 1.775335 4.3243604e-06 4.978564e-39
2.074779 1.7743908 7.812052e-06 4.978564e-39
2.1265526 1.7757421 3.7506445e-06 4.978564e-39
2.1763325 1.7749611 4.2517981e-06 4.978564e-39
2.2268431 1.7745159 5.045245e-06 4.978564e-39
2.2755497 1.7707378 4.3511391e-06 4.978564e-39
2.3061259 1.7720741 0.00056550704 4.978564e-39
2.3634293 1.7814323 5.8015189e-06 4.978564e-39
2.4234402 1.7998459 4.529953e-06 4.978564e-39
2.4765534 1.786985 0.00013860864 4.978564e-39
2.5966644 1.7790093 3.4793837e-05 4.978564e-39
2.6310008 1.7709138 4.6968462e-06 4.978564e-39
2.6639447 1.784328 0.0018479412 4.978564e-39
2.8656449 1.7896465 5.364418e-06 4.978564e-39
3.1495688 1.7844622 5.1259995e-06 4.978564e-39
1.3439764 1.801293 6.5962472e-06 4.978564e-39
1.3820494 1.8152388 3.9896408e-06 4.978564e-39
1.4249402 1.8242704 4.2394047e-05 4.978564e-39
1.4751726 1.8255664 3.9835045e-06 4.978564e-39
1.5258733 1.8250026 3.0881976e-05 4.978564e-39
1.574168 1.8247199 4.4669096e-06 4.978564e-39
1.6234229 1.8244183 1.0973732e-05 4.978564e-39
1.6747162 1.8256974 4.2319298e-06 4.978564e-39
1.724158 1.8247861 4.8536881e-06 4.978564e-39
1.7760024 1.8247825 1.3909197e-05 4.978564e-39
1.8260756 1.8236254 6.6164299e-05 4.978564e-39
1.8741126 1.8264028 3.8998469e-06 4.978564e-39
1.9235442 1.8250122 3.0758023e-05 4.978564e-39
1.9744269 1.824682 4.451952e-06 4.978564e-39
2.0237844 1.8249078 2.3599316e-05 4.978564e-39
2.0751116 1.8240923 3.9746492e-06 4.978564e-39
2.1264322 1.8262339 3.7577615e-06 4.978564e-39
2.17663 1.8254445 0.00011612083 4.978564e-39
2.2272024 1.8240318 2.5112669e-05 4.978564e-39
2.284045 1.8286455 1.125119e-05 4.978564e-39
2.305336 1.8302603 4.2915344e-06 4.978564e-39
2.366534 1.8499331 5.8412552e-06 4.978564e-39
2.4157748 1.8265717 4.2915344e-06 4.978564e-39
2.4821486 1.8371329 0.00040723543 4.978564e-39
2.8899381 1.8138753 6.5565109e-06 4.978564e-39
2.9083569 1.8078952 6.1988831e-06 4.978564e-39
3.4594955 1.8009858 5.6028366e-06 4.978564e-39
1.4355717 1.8576148 2.7673584e-06 4.978564e-39
1.476895 1.8724104 4.4188455e-06 4.978564e-39
1.5264412 1.8745279 3.937982e-06 4.978564e-39
1.5741917 1.8738919 5.5642085e-05 4.978564e-39
1.6230873 1.8738047 2.7746481e-05 4.978564e-39
1.6747168 1.8747125 3.7066638e-06 4.978564e-39
1.7245321 1.8741478 4.5734146e-06 4.978564e-39
1.7760665 1.8755937 3.845646e-06 4.978564e-39
1.8257667 1.875339 4.9485102e-06 4.978564e-39
1.8742634 1.8763539 2.0689333e-05 4.978564e-39
1.9237484 1.8761473 3.7806374e-06 4.978564e-39
1.9749774 1.8756347 4.4788635e-06 4.978564e-39
2.0240214 1.8751452 4.2716661e-06 4.978564e-39
2.0741272 1.8752458 3.994965e-06 4.978564e-39
2.1267352 1.8763819 3.7550926e-06 4.978564e-39
2.1760492 1.8762467 1.6296564e-05 4.978564e-39
2.2273996 1.8754417 5.0663948e-06 4.978564e-39
2.2808752 1.8856632 4.1564304e-06 4.978564e-39
2.3214333 1.8894289 0.0005593989 4.978564e-39
2.3603249 1.8532566 5.6823096e-06 4.978564e-39
2.4821517 1.8530824 5.6028366e-06 4.978564e-39
2.5738647 1.8637341 4.8081079e-06 4.978564e-39
2.8899381 1.8692657 6.5565109e-06 4.978564e-39
4.2524481 1.8933312 7.6293945e-06 4.978564e-39
1.4954282 1.9031328 4.7882399e-06 4.978564e-39
1.5310436 1.9152129 4.4206777e-06 4.978564e-39
1.5743474 1.924865 4.3248269e-06 4.978564e-39
1.6235867 1.9234548 4.0714558e-06 4.978564e-39
1.6747159 1.9237263 4.2044198e-06 4.978564e-39
1.7246284 1.9237808 4.9623904e-06 4.978564e-39
1.7760667 1.9262954 3.5824876e-06 4.978564e-39
1.8256929 1.9267716 2.4473289e-05 4.978564e-39
1.8735949 1.9260216 4.0693049e-06 4.978564e-39
1.9237486 1.9250526 4.2791489e-06 4.978564e-39
1.9749777 1.925325 4.4788635e-06 4.978564e-39
2.0243058 1.9252752 1.8800372e-05 4.978564e-39
2.0746102 1.925856 4.0345376e-06 4.978564e-39
2.126662 1.9264951 0.00010993818 4.978564e-39
2.1763327 1.9263974 4.4414492e-06 4.978564e-39
2.2267818 1.9255528 4.8875809e-06 4.978564e-39
2.2784612 1.9237906 3.9339066e-06 4.978564e-39
2.3479545 1.9369453 5.2452087e-06 4.978564e-39
2.3759949 1.9250332 4.529953e-06 4.978564e-39
2.4152918 1.9193022 0.00017580751 4.978564e-39
2.4591229 1.9237766 4.8875809e-06 4.978564e-39
2.5223448 1.9433897 4.0531158e-06 4.978564e-39
2.5842688 1.9054749 4.8875809e-06 4.978564e-39
2.7326672 1.9114695 0.00056955084 4.978564e-39
2.8175318 1.9221911 0.0012454032 4.978564e-39
3.4912946 1.9017004 5.364418e-06 4.978564e-39
1.584645 1.9600009 4.0871755e-06 4.978564e-39
1.6257693 1.9710091 4.0557607e-05 4.978564e-39
1.6747162 1.974702 4.1585704e-06 4.978564e-39
1.724062 1.975104 4.0660989e-06 4.978564e-39
1.7760659 1.9749678 3.9984784e-06 4.978564e-39
1.8259929 1.9760625 5.0578797e-06 4.978564e-39
1.874112 1.9750204 3.8936914e-06 4.978564e-39
1.923748 1.9739585 4.9131258e-06 4.978564e-39
1.9751689 1.9747986 2.7653019e-05 4.978564e-39
2.0235698 1.9745959 4.7315571e-06 4.978564e-39
2.0746102 1.9748456 4.1212356e-06 4.978564e-39
2.1268721 1.9761398 1.8366874e-05 4.978564e-39
2.176044 1.9758766 4.9730243e-05 4.978564e-39
2.2275503 1.9746665 3.8034108e-05 4.978564e-39
2.2666388 1.9692603 5.1259995e-06 4.978564e-39
2.3476515 1.9706798 0.00062189874 4.978564e-39
2.4263365 1.9914132 0.0011919532 4.978564e-39
2.4660788 1.9800767 2.4847352e-05 4.978564e-39
2.6362288 1.9936463 0.0001311899 4.978564e-39
2.7951393 1.9615548 0.00067362841 4.978564e-39
2.9774444 1.9623365 7.8775694e-05 4.978564e-39
1.6433567 2.0037379 3.2583873e-06 4.978564e-39
1.6792881 2.0167692 2.2734497e-05 4.978564e-39
1.7254299 2.0249298 8.7577704e-05 4.978564e-39
1.7755415 2.0246708 4.3284895e-06 4.978564e-39
1.8261925 2.0254273 1.408874e-05 4.978564e-39
1.8741236 2.0249023 2.7091448e-05 4.978564e-39
1.9238985 2.0252342 5.5482276e-05 4.978564e-39
1.9745089 2.0253425 4.0621699e-06 4.978564e-39
2.0245874 2.0252762 4.7935388e-05 4.978564e-39
2.0741105 2.0244899 4.04708e-06 4.978564e-39
2.1267352 2.0256398 3.7550926e-06 4.978564e-39
2.1760104 2.0254328 5.2609546e-05 4.978564e-39
2.2273989 2.0244656 4.6491623e-06 4.978564e-39
2.257829 2.0348728 5.0067902e-06 4.978564e-39
2.3076546 2.0450425 0.00079498871 4.978564e-39
2.366534 2.0484636 5.8412552e-06 4.978564e-39
2.4175737 2.0179138 0.00021553623 4.978564e-39
2.4562006 2.0134192 0.0001518913 4.978564e-39
2.6376014 2.0174785 0.0012453048 4.978564e-39
2.6810434 2.0421941 5.0067902e-06 4.978564e-39
2.7369392 2.0280876 3.695488e-06 4.978564e-39
2.9145191 2.0250449 6.7949295e-06 4.978564e-39
3.5893066 2.0180304 6.5565109e-06 4.978564e-39
1.734031 2.0600598 4.4831208e-06 4.978564e-39
1.7782326 2.0730057 4.8031966e-06 4.978564e-39
1.8260462 2.0752044 3.1340496e-05 4.978564e-39
1.8739102 2.0745966 3.3695957e-05 4.978564e-39
1.9231497 2.0751634 2.7987853e-05 4.978564e-39
1.9754291 2.0749969 4.2217534e-06 4.978564e-39
2.0237353 2.0750926 5.0512713e-06 4.978564e-39
2.0745683 2.0752523 6.0298597e-05 4.978564e-39
2.1269026 2.0750394 5.0703617e-05 4.978564e-39
2.1765258 2.0743778 4.6766722e-06 4.978564e-39
2.2273974 2.0750136 3.8970382e-05 4.978564e-39
2.2933373 2.0978329 3.695488e-06 4.978564e-39
2.3163757 2.0789723 0.00065167557 4.978564e-39
2.3740966 2.0683692 0.00023401646 4.978564e-39
2.4282122 2.0682826 0.00026959984 4.978564e-39
2.4521191 2.0754936 0.00050454901 4.978564e-39
2.5427611 2.0781131 5.8412552e-06 4.978564e-39
2.5726001 2.0693645 0.00042183266 4.978564e-39
2.6201389 2.0839529 6.1193925e-05 4.978564e-39
2.7143917 2.0778117 4.529953e-06 4.978564e-39
2.9397483 2.0529263 9.0205416e-05 4.978564e-39
3.5714378 2.0872166 0.0020107725 4.978564e-39
1.795306 2.1057129 5.3984777e-06 4.978564e-39
1.8295169 2.1174338 9.3648297e-05 4.978564e-39
1.8741122 2.1248426 4.2645706e-06 4.978564e-39
1.9236623 2.1252284 4.1752328e-06 4.978564e-39
1.974418 2.1250172 5.070865e-06 4.978564e-39
2.0238521 2.1247926 4.6232472e-06 4.978564e-39
2.0747483 2.1253908 3.4636534e-05 4.978564e-39
2.1267347 2.1251433 4.4775734e-06 4.978564e-39
2.1762311 2.1243496 4.0399842e-05 4.978564e-39
2.2271302 2.1253674 4.6640635e-06 4.978564e-39
2.2841318 2.1228695 0.00022529456 4.978564e-39
2.3127224 2.1287837 0.00017833016 4.978564e-39
2.3627715 2.1312079 0.00047374569 4.978564e-39
2.4331009 2.1447234 2.9802322e-06 4.978564e-39
2.4525659 2.1410086 4.4107437e-06 4.978564e-39
2.5122175 2.1271157 3.695488e-06 4.978564e-39
2.6266892 2.1467154 4.4107437e-06 4.978564e-39
2.7258022 2.1285608 0.00019240996 4.978564e-39
2.8136251 2.1213655 0.0011531692 4.978564e-39
2.9688082 2.1185246 0.0010267764 4.978564e-39
3.4437521 2.1214337 6.7949295e-06 4.978564e-39
1.8829691 2.1606035 3.8559619e-06 4.978564e-39
1.9263828 2.1723559 4.0380046e-06 4.978564e-39
1.9754778 2.1747081 2.9979532e-05 4.978564e-39
2.0244026 2.175158 9.2669106e-06 4.978564e-39
2.0746114 2.1752496 5.0248977e-06 4.978564e-39
2.1267331 2.1748948 5.1856041e-06 4.978564e-39
2.1763325 2.174963 4.5046663e-06 4.978564e-39
2.2276578 2.1751993 4.7976057e-05 4.978564e-39
2.2754948 2.1747789 4.0531158e-06 4.978564e-39
2.3189638 2.172508 4.1524568e-06 4.978564e-39
2.3618772 2.1739893 5.7220459e-06 4.978564e-39
2.4697711 2.1570222 5.7220459e-06 4.978564e-39
2.6139109 2.1544912 0.00045708122 4.978564e-39
2.6810434 2.1763477 5.0067902e-06 4.978564e-39
2.7326138 2.1780097 0.00094306073 4.978564e-39
1.9430094 2.2046754 4.529953e-06 4.978564e-39
1.9800335 2.216604 9.1569156e-05 4.978564e-39
2.0235226 2.224942 3.9183574e-06 4.978564e-39
2.0744061 2.225189 4.6613891e-06 4.978564e-39
2.1264317 2.2250223 4.6776304e-06 4.978564e-39
2.1762671 2.2249749 4.9658367e-05 4.978564e-39
2.2233846 2.2247808 4.3952905e-06 4.978564e-39
2.3267641 2.2116461 0.00037450169 4.978564e-39
2.3572624 2.2177911 4.1384861e-05 4.978564e-39
2.4525659 2.2153599 4.4107437e-06 4.978564e-39
2.5291502 2.214921 4.6491623e-06 4.978564e-39
2.5877533 2.2281809 0.0003815325 4.978564e-39
2.6482491 2.2471623 5.364418e-06 4.978564e-39
2.670054 2.2097044 3.695488e-06 4.978564e-39
2.791558 2.2248681 0.00097637542 4.978564e-39
2.8416288 2.236521 6.7949295e-06 4.978564e-39
2.8899381 2.2126853 6.5565109e-06 4.978564e-39
2.9645679 2.2463431 5.6028366e-06 4.978564e-39
3.4113598 2.2387967 0.00047438825 4.978564e-39
2.0322273 2.2589123 0.00044747847 4.978564e-39
2.0767815 2.2724438 4.0876694e-06 4.978564e-39
2.1267335 2.2751498 4.7792087e-06 4.978564e-39
2.1761503 2.2743943 6.4881271e-05 4.978564e-39
2.2240911 2.2760854 3.4957771e-05 4.978564e-39
2.257827 2.2767916 6.0796738e-06 4.978564e-39
2.3325381 2.2759266 0.00037479005 4.978564e-39
2.3572204 2.2557862 5.6028366e-06 4.978564e-39
2.5223448 2.2632005 4.0531158e-06 4.978564e-39
2.5768211 2.280493 4.7854014e-06 4.978564e-39
2.6268058 2.2659764 5.0663948e-06 4.978564e-39
2.725631 2.2565188 5.364418e-06 4.978564e-39
2.8378468 2.2661006 0.0010556681 4.978564e-39
2.9805593 2.2634521 0.0006845321 4.978564e-39
3.0018048 2.2790327 0.0013272351 4.978564e-39
2.0930779 2.3051074 4.3312707e-06 4.978564e-39
2.1304343 2.3179293 5.2695923e-06 4.978564e-39
2.1761365 2.3244779 5.5881646e-06 4.978564e-39
2.2233822 2.3248174 4.7662043e-06 4.978564e-39
2.274039 2.3083739 5.4836273e-06 4.978564e-39
2.3204021 2.3210428 0.00011024764 4.978564e-39
2.3758953 2.3109765 6.0796738e-06 4.978564e-39
2.4525659 2.3194516 4.4107437e-06 4.978564e-39
2.5325258 2.3434761 4.6491623e-06 4.978564e-39
2.5686626 2.3322487 4.529953e-06 4.978564e-39
2.7244496 2.3065617 0.00038532572 4.978564e-39
2.8784168 2.3220503 0.00084761716 4.978564e-39
3.3364379 2.3189831 4.8875809e-06 4.978564e-39
2.1841733 2.3607926 5.1259995e-06 4.978564e-39
2.2244701 2.3734438 5.5420155e-06 4.978564e-39
2.2670746 2.3712661 0.00021096128 4.978564e-39
2.325007 2.3707979 5.5631003e-06 4.978564e-39
2.4283211 2.3869486 3.6656857e-06 4.978564e-39
2.4673057 2.3808146 5.6028366e-06 4.978564e-39
2.5190041 2.3755705 4.2915344e-06 4.978564e-39
2.5638938 2.3580372 0.00026833295 4.978564e-39
2.6215031 2.3703983 0.00069573312 4.978564e-39
2.6992869 2.3536835 0.0024990272 4.978564e-39
2.703213 2.3524377 4.7683716e-06 4.978564e-39
2.8178937 2.3734248 6.3180923e-06 4.978564e-39
3.041923 2.3558669 5.364418e-06 4.978564e-39
3.0678775 2.3792582 0.00022148165 4.978564e-39
2.2359974 2.4028912 6.5565109e-06 4.978564e-39
2.3295615 2.4496465 6.1988831e-06 4.978564e-39
2.3821685 2.4462118 6.3180923e-06 4.978564e-39
2.433095 2.4454982 6.3180923e-06 4.978564e-39
2.4788468 2.4172096 5.6823096e-06 4.978564e-39
2.5685401 2.4270003 0.00093258725 4.978564e-39
2.6266892 2.4294918 4.4107437e-06 4.978564e-39
2.6810434 2.4130893 5.0067902e-06 4.978564e-39
2.7582986 2.4082947 0.00055472582 4.978564e-39
2.928658 2.4446092 6.1791477e-05 4.978564e-39
2.3253984 2.4558618 2.9893816e-05 4.978564e-39
2.3859205 2.4822626 0.00032467462 4.978564e-39
2.433095 2.4528947 6.3180923e-06 4.978564e-39
2.4628937 2.470649 0.00050980726 4.978564e-39
2.5596988 2.4712126 0.00069975125 4.978564e-39
2.866051 2.4635296 0.00073151255 4.978564e-39
2.939399 2.4629247 4.1723251e-06 4.978564e-39
3.2772758 2.477181 6.0796738e-06 4.978564e-39
3.3514657 2.4649282 6.3180923e-06 4.978564e-39
2.5427611 2.5096431 5.8412552e-06 4.978564e-39
2.5853472 2.5113163 0.00044761214 4.978564e-39
2.6482508 2.5054188 4.4107437e-06 4.978564e-39
2.6649518 2.5259273 0.00035556947 4.978564e-39
2.736937 2.5269401 4.6491623e-06 4.978564e-39
2.8979905 2.5360408 0.0011813748 4.978564e-39
2.5223961 2.5796106 5.8412552e-06 4.978564e-39
2.5947864 2.5718858 5.1259995e-06 4.978564e-39
2.7095723 2.5740361 0.00046015743 4.978564e-39
2.7644691 2.5778384 0.00086366269 4.978564e-39
3.1773241 2.5949497 5.364418e-06 4.978564e-39
3.9276567 2.57427 0.00099963078 4.978564e-39
2.637439 2.6026242 4.8875809e-06 4.978564e-39
2.7256958 2.6174586 4.6888986e-06 4.978564e-39
2.7597411 2.6243625 3.9339066e-06 4.978564e-39
2.8777914 2.6398101 5.8412552e-06 4.978564e-39
2.9021947 2.6163468 5.364418e-06 4.978564e-39
2.6785662 2.6742043 0.00059354416 4.978564e-39
2.703213 2.6963162 4.7683716e-06 4.978564e-39
2.7702923 2.6622362 0.00080201693 4.978564e-39
3.4606128 2.7393532 0.00045458149 4.978564e-39
2.9258976 2.7797871 0.00054202182 4.978564e-39
2.9893124 2.7991786 0.00039579443 4.978564e-39
2.9021947 2.835783 5.364418e-06 4.978564e-39
3.041923 2.8467541 5.364418e-06 4.978564e-39
3.4586487 2.8576858 0.0012683177 4.978564e-39
3.1761789 2.9300063 0.0028635808 4.978564e-39
3.3829718 2.9131775 0.0010600325 4.978564e-39
3.4445605 2.9426038 0.00011911314 4.978564e-39
4.1468482 2.9105601 6.3180923e-06 4.978564e-39
3.1492169 2.9592056 0.0001910517 4.978564e-39
3.691442 3.0046499 6.3180923e-06 4.978564e-39
3.5554056 3.0560637 0.0007960755 4.978564e-39
3.9091566 3.3148115 5.7220459e-06 4.978564e-39
4.3847351 3.6397266 8.225441e-06 4.978564e-39
0.29606891 -0.43023792 0.59151012 0
0.32086256 -0.4242011 0.58959079 0
0.32999843 -0.37517923 0.58887458 0
0.32998365 -0.32503626 0.58887398 0
0.32999444 -0.27505669 0.58888519 0
0.3299984 -0.22496893 0.58885056 0
0.3299984 -0.17501459 0.58888203 0
0.3299984 -0.12506005 0.58883458 0
0.32999843 -0.074990369 0.58887434 0
0.32999837 -0.025154332 0.58889902 0
0.32996777 0.024735134 0.58885247 0
0.3299984 0.074989937 0.58889902 0
0.32999843 0.12505886 0.58884209 0
0.32999334 0.17519823 0.58886969 0
0.32999843 0.22520031 0.58885884 0
0.3299984 0.27515468 0.58885807 0
0.3300069 0.32498765 0.58892202 0
0.32999226 0.37489623 0.58874172 0
0.29604089 0.42976516 0.59167302 1.1985432e-39
0.32126021 0.42339361 0.58953339 6.4536941e-40
0.44328421 -0.75446039 0.60999876 1.0786889e-38
0.45346212 -0.75789434 0.6099987 1.0786889e-38
0.38840267 -0.71058446 0.61000019 1.0786889e-38
0.42665261 -0.7223208 0.60998517 1.0786889e-38
0.45331749 -0.72496128 0.60999984 1.0786889e-38
0.34858298 -0.65353614 0.60999918 1.0879084e-38
0.37815282 -0.67266124 0.60998583 1.0786889e-38
0.42447627 -0.67500776 0.6099866 1.0879084e-38
0.4533174 -0.67495853 0.60999984 1.0879084e-38
0.34002432 -0.61891949 0.60999936 1.0879084e-38
0.37457901 -0.62498587 0.60999435 1.0879084e-38
0.42445469 -0.62500381 0.60999143 1.0879084e-38
0.45331773 -0.62495565 0.60999984 1.0879084e-38
0.28935751 -0.55823147 0.62923348 1.5770493e-39
0.32814175 -0.57236201 0.61020231 1.0879084e-38
0.37457043 -0.57501191 0.60999072 1.097128e-38
0.42448419 -0.57496256 0.60999489 1.097128e-38
0.45331067 -0.57514644 0.6099999 1.097128e-38
0.29258722 -0.5251025 0.61000043 1.1063476e-38
0.32427734 -0.52504671 0.60998631 1.1063476e-38
0.3746337 -0.52495396 0.60999459 1.1063476e-38
0.42444536 -0.52487999 0.60999149 1.1063476e-38
0.45330465 -0.52533513 0.60999995 1.1063476e-38
0.29256445 -0.47507969 0.6100049 1.1063476e-38
0.32423079 -0.47504732 0.60998994 1.1063476e-38
0.37459183 -0.4749445 0.60999125 1.1155671e-38
0.42451337 -0.47490805 0.60998714 1.1063476e-38
0.46467721 -0.46522832 0.61000031 1.1063476e-38
0.50233513 -0.45566511 0.60999972 1.097128e-38
0.67530024 -0.4535639 0.61000073 1.1063476e-38
0.72424132 -0.45355496 0.61000079 1.1063476e-38
0.77543032 -0.45358345 0.61000139 1.1063476e-38
0.82500976 -0.45354661 0.61000198 1.1063476e-38
0.85963976 -0.45375085 0.61000222 1.1063476e-38
0.29279339 -0.43805254 0.60899699 8.6663892e-39
0.32861063 -0.4297711 0.60915041 9.219563e-39
0.37459815 -0.42507201 0.60999072 1.097128e-38
0.42452773 -0.42501268 0.60999209 1.097128e-38
0.46427098 -0.42913985 0.6117661 1.0601777e-38
0.63948649 -0.41675252 0.61000061 1.097128e-38
0.67359537 -0.42503566 0.60999846 1.097128e-38
0.72452295 -0.42501479 0.61000371 1.097128e-38
0.77515745 -0.42506087 0.61000186 1.1063476e-38
0.82522494 -0.42498365 0.61000878 1.1063476e-38
0.85986066 -0.42514729 0.61000133 1.1063476e-38
0.33816224 -0.37499368 0.60899365 9.0351717e-39
0.37459433 -0.3750605 0.60999066 1.0879084e-38
0.4233332 -0.37625396 0.61208159 1.0600697e-38
0.45299757 -0.39448422 0.6188404 9.3960369e-39
0.588494 -0.35907409 0.61003649 1.097128e-38
0.62612611 -0.37262535 0.60999918 1.097128e-38
0.67356479 -0.37500715 0.61000955 1.097128e-38
0.72397274 -0.37546116 0.61003035 1.097128e-38
0.77324986 -0.3821415 0.60999876 1.097128e-38
0.82854784 -0.37828466 0.61000288 1.1063476e-38
0.85982865 -0.37505999 0.61000127 1.1063476e-38
0.33817795 -0.32494935 0.60901153 9.0351717e-39
